# .PCD v0.7 - Point Cloud Data file format
VERSION 0.7
FIELDS x y z normal_x normal_y normal_z curvature
SIZE 4 4 4 4 4 4 4
TYPE F F F F F F F
COUNT 1 1 1 1 1 1 1
WIDTH 651
HEIGHT 1
VIEWPOINT 0 0 0 1 0 0 0
POINTS 651
DATA ascii
-10.880817 13.79731 0.18277334 0.045055091 0.14929342 0.056662831 0.16591914
-10.862299 13.683294 0.18275058 -0.0029331446 0.011437833 0.059267785 0.060432587
-10.849541 13.622283 0.18273708 -0.02240625 -0.012218505 0.067722991 0.072372206
-10.889963 13.586309 0.18275109 0.0077950358 0.012146384 0.021605551 0.02598263
-10.927402 13.544333 0.18276301 0.030357093 0.016885936 -0.036458097 0.050357528
-10.92386 13.453328 0.18274997 0.037507087 0.023165256 0.015790042 0.046826661
-10.849384 13.273273 0.18269309 -0.017269641 -0.0089551806 0.0013156226 0.019497862
-10.885823 13.231296 0.18270455 -0.053035334 -0.024264634 -0.022221405 0.062412418
-11.160044 13.486487 0.182863 0.067822948 0.0091564655 -0.10835638 0.12815966
-11.211229 13.506523 0.18288916 0.031467304 0.00093004107 -0.1273209 0.13115513
-11.284629 13.509573 0.18192355 -0.1327671 -0.083600044 -0.038645077 0.16158438
-11.388004 13.548644 0.18197639 0.66123456 -0.64430439 -0.16233104 0.93739569
-11.348501 13.413613 0.18294132 -0.14062674 -0.10318136 0.022521645 0.17586784
-11.361953 13.343621 0.1829389 0.0020218641 -0.016635597 0.056497894 0.058930833
-11.436349 13.347672 0.18297407 0.073849335 0.026177645 0.030235693 0.08398328
-11.487772 13.322707 0.18199497 0.036131516 -0.0074853599 0.058386385 0.069068715
-11.513977 13.311725 0.18200585 -0.0027098507 -0.034450293 0.056256041 0.066022031
-11.489454 13.198705 0.18298043 0.065358311 -0.019845635 0.0977467 0.11924753
-11.548874 13.182745 0.18300627 0.0048933327 -0.059723198 0.097697586 0.11461075
-11.66224 13.230825 0.18206534 -0.067458369 -0.060987025 0.045060515 0.10149137
-11.623729 13.102796 0.1830315 -0.071554363 -0.070810914 0.040318072 0.10844243
-11.740096 13.152878 0.18209235 -0.14775075 -0.10208821 0.05835408 0.18883191
-11.772528 13.106898 0.18210198 -0.078691795 -0.086216003 0.064042091 0.13314274
-11.708809 12.992852 0.18305796 -0.048210159 -0.086343408 0.061855167 0.11664247
-11.826181 13.041935 0.18211932 0.0031545013 -0.037564993 0.038939506 0.05419746
-11.819647 12.951928 0.1831052 -0.28115034 -0.15860228 0.060796976 0.32847598
-11.86307 12.918959 0.18312168 0.017237052 -0.021218777 0.016665548 0.032017075
-11.858535 12.831953 0.18310887 -0.37064064 -0.099208891 0.09256202 0.39469558
-12.673351 13.648545 0.18159506 0.0064366758 -0.027707756 0.015897304 0.032586422
-22.605988 24.428791 0.16462924 0.4961102 -0.7304368 -0.07711564 0.88634646
-31.64908 34.214401 0.15012445 -0.22776505 0.41189834 0.076097824 0.4767893
-31.956379 34.331642 0.14929427 -0.14542256 0.62803328 -0.026587665 0.64519799
-31.878973 34.033604 0.15023038 0.05620487 -0.064921856 -0.13330811 0.15857139
-32.240227 34.205887 0.14943299 -0.18336795 0.18955278 0.075300992 0.2742705
-32.29073 34.043941 0.14944683 -0.2507838 0.2235253 0.1299248 0.36018959
-32.289265 33.828957 0.14942937 0.18620248 0.11132865 -0.15149061 0.26460317
-32.366745 33.697033 0.14945979 0.016034305 -0.042543549 -0.03765212 0.059031643
-39.223747 40.770096 0.1386082 0 0 0 0
-40.172588 41.50082 0.13716444 0 0 0 0
-39.174908 40.210114 0.1395417 -0.037633017 -0.065651685 0.034226567 0.083053268
-39.360332 40.14727 0.13963564 0.031754851 0.06218791 -0.043922141 0.082491584
-39.450825 39.987362 0.13967223 0.7783553 -0.44248474 -0.31063297 0.94769329
-39.437393 39.723381 0.13964617 0.81375808 -0.34879303 -0.28283548 0.92943782
-39.408695 39.56937 0.1396199 -0.50668603 0.60484421 -0.34372914 0.86064917
-39.689045 39.603607 0.1397716 -0.46094623 0.56723273 -0.54531819 0.91191906
-34.457474 34.130741 0.1485952 0 0 0 0
-33.277882 32.74588 0.14986743 -0.057875276 0.12313445 -0.12749898 0.18646081
-33.616169 32.873154 0.15005599 -0.072492331 0.31886578 0.08084482 0.33684775
-33.250969 32.309898 0.15082049 0.049173504 -0.063880794 0.083310291 0.1159284
-33.130589 31.989828 0.15073279 0.69849873 -0.25625974 -0.65082806 0.98850733
-33.249771 32.004929 0.15079707 -0.05429247 0.045853913 -0.10302246 0.12515543
-33.856865 32.3904 0.15014772 0 0 0 0
-33.439701 31.786108 0.15088153 -0.028401285 -0.0079482794 -0.021114707 0.03627174
-19.401207 18.211578 0.1734212 -0.28156734 0.76765716 -0.36044461 0.89358717
-33.524704 31.469212 0.15190324 0.78373456 -0.26214263 -0.55904365 0.99774164
-19.605513 18.060749 0.17351162 -0.33143035 0.2310144 0.29011354 0.49737269
-19.669189 17.949804 0.17353389 -0.14058369 0.21053749 0.098259419 0.2715598
-34.296558 31.298885 0.15130182 -0.15071002 -0.029833525 -0.080530867 0.17346114
-34.395023 31.19198 0.15134664 0.1682705 0.18646955 -0.24484025 0.35076004
-34.512474 31.102089 0.15140288 0.15579458 0.15981361 -0.20944358 0.30607018
-34.660904 31.040222 0.15147777 0.119504 0.054955751 -0.047958277 0.14000478
-35.4519 31.553846 0.14993764 0 0 0 0
-18.504097 16.189957 0.17576844 0.052034348 -0.041571587 0.041545168 0.078496948
-18.712431 16.27212 0.17488325 -0.047953457 0.028870523 -0.10911383 0.12263307
-18.921772 16.352285 0.17499851 0.048845902 -0.024129122 0.0069721825 0.054924931
-35.655167 30.844097 0.15099661 0 0 0 0
-35.306927 30.346851 0.15177472 0 0 0 0
-35.340439 30.182899 0.15178122 -0.010242924 -0.0092515647 0.0056350678 0.014908485
-35.477615 30.205015 0.15185648 -0.010242924 -0.0092515647 0.0056350678 0.014908485
-37.647732 31.864706 0.14813936 -0.21390489 0.25863934 0.12287259 0.35741752
-37.693237 31.700764 0.14915276 0.0072688013 -0.019508243 -0.018782735 0.028039224
-37.852673 31.633911 0.14823428 -0.22475068 0.25975889 0.13163239 0.36785138
-38.001114 31.557049 0.14830926 -0.0021033953 0.0048736669 -8.2731247e-05 0.0053088367
-36.578564 30.171974 0.15044716 0 0 0 0
-37.188442 30.581457 0.14980429 0 0 0 0
-37.062054 30.282383 0.15071574 0.095221281 -0.093116239 -0.042229623 0.13971782
-36.943668 29.991314 0.15063204 0.12813258 0.35307851 -0.4613114 0.59488702
-38.463245 31.034515 0.1485243 0 0 0 0
-36.485016 29.238003 0.151333 0.59874773 8.4534287e-05 -0.51866937 0.79215956
-36.346634 28.938917 0.15223788 -0.26263312 -0.17363068 0.88917315 0.94326705
-36.412125 28.805992 0.1522643 -0.009708643 0.15542907 0.09840709 0.18421836
-36.43338 28.729019 0.1522706 0.57338482 0.21165034 -0.66160631 0.90071583
-36.816669 28.847342 0.15148614 0.20700341 -0.1788671 0.12799215 0.30203617
-37.196972 28.959661 0.15169981 -0.20214346 0.13147672 -0.69381654 0.73452669
-36.67382 28.364277 0.15237629 -0.0050696433 -0.15461163 -0.18605077 0.24196146
-36.886223 28.345465 0.15249024 -0.27435735 0.61113644 -0.52549613 0.85141402
-38.751629 29.59795 0.14958629 0 0 0 0
-36.82132 27.929459 0.15242726 0.021380544 0.029815033 -0.1943568 0.19778936
-39.509983 29.888584 0.14901794 0 0 0 0
-36.979546 27.59664 0.15249111 -0.043801248 -0.024637669 0.016371835 0.052854527
-37.269909 27.632895 0.15265143 0.0026642866 0.00055333972 -0.0034233034 0.0043730554
-37.783134 27.833321 0.15194397 -0.037925735 0.018529266 -0.030154958 0.05187501
-38.058506 27.854563 0.15209538 0.05316418 -0.014356017 0.031747863 0.063564554
-38.439819 27.95089 0.15130952 0.078642614 -0.05197534 0.1591716 0.18499106
-38.584003 27.964018 0.15138903 -0.0044292808 -0.090077497 0.30265564 0.31580693
-40.185616 28.942312 0.14932628 0 0 0 0
-38.586063 27.598066 0.15136659 0.24962483 0.20533261 -0.14847296 0.35569403
-40.499512 28.785614 0.14948812 -0.00081736775 0.0012051519 -1.6689301e-06 0.0014561882
-39.074856 27.580505 0.15163255 0 0 0 0
-40.732456 28.569853 0.14960219 0 0 0 0
-40.789963 28.418926 0.14962429 0 0 0 0
-38.399563 26.652029 0.15220395 0 0 0 0
-38.41608 26.486067 0.15320235 0 0 0 0
-37.094334 25.396034 0.15440927 0.039062381 -0.028310191 -0.030872524 0.057275206
-37.122845 25.245079 0.15441506 -0.38752154 -0.1264077 0.20705342 0.4571903
-36.960461 24.96497 0.15530805 -0.016905546 0.029734343 0.02010153 0.039673671
-36.721111 24.634802 0.15515567 0.019184232 -0.050390437 0.071877316 0.0898531
-38.485424 25.740232 0.15319276 -0.00028038991 -0.00017812644 -3.5762787e-07 0.0003321862
-38.292061 25.436102 0.15406743 0.020677885 -0.18249775 0.035262048 0.18701982
-38.598423 25.468372 0.15323745 0 0 0 0
-38.736874 25.386509 0.15330823 0.00049108081 0.10256621 -0.066753894 0.12237709
-38.981281 25.37273 0.15344152 -0.062021606 0.051906466 -0.060342044 0.10090651
-38.037304 24.583992 0.15487343 0.051413782 -0.2533147 0.073613048 0.26875752
-38.285698 24.576218 0.1540093 0.051413782 -0.2533147 0.073613048 0.26875752
-38.202003 24.438162 0.15495457 -0.29765457 0.071421742 0.031021714 0.30767134
-37.908684 24.081949 0.15477087 0.39605129 0.0036515072 -0.0053825974 0.39610469
-37.822254 23.859901 0.15570927 -0.044208586 -0.1397728 0.036048114 0.15096457
-38.014683 23.816082 0.1548122 0.20545143 0.097841091 -0.039963484 0.23104165
-38.975716 24.253889 0.15436825 0 0 0 0
-38.433517 23.747471 0.15503813 0 0 0 0
-40.215153 24.682951 0.15307744 0 0 0 0
-38.408321 23.482489 0.15500759 0.18306792 0.079230741 0.10907388 0.22735101
-37.96207 23.044147 0.15573432 0 0 0 0
-38.102524 22.967287 0.15580676 -0.30956271 0.14233027 0.13445491 0.36628556
-38.090054 22.797302 0.15578915 -0.64167017 0.17313445 0.10497871 0.67285711
-37.725758 22.417025 0.15656447 0.10545719 -0.19507903 0.11237878 0.2486082
-37.674305 22.227009 0.15652408 0.085311234 -0.10493986 0.25037819 0.28456917
-37.79277 22.138128 0.1565837 0.29746264 0.12692998 -0.32137993 0.45593894
-39.679127 23.168694 0.15468852 0.49562883 0.24553233 -0.77471721 0.95190376
-39.459755 22.87454 0.15454924 0.01048106 0.0019726604 0.22780451 0.22805403
-39.542244 22.757633 0.15458757 -0.79682517 0.55521709 0.0078846384 0.97121495
-40.073524 22.899099 0.15388981 0.024134815 0.34045601 0.17509735 0.38360378
-40.055058 22.723108 0.15486881 0.025539264 0.0025208592 0.064389065 0.069314934
-39.716747 22.364855 0.15465978 -0.23186703 -0.047587514 0.26021409 0.3517645
-39.588333 22.128773 0.15557422 0.26681018 0.11058696 -0.38100171 0.47809982
-40.314259 22.455389 0.15399581 0.041108221 -0.22581708 -0.046163198 0.2341245
-39.757046 21.979952 0.15565836 0.0089336336 -0.015495045 0.028949305 0.034028936
-39.798553 21.841013 0.15567279 0 0 0 0
-39.680134 21.613937 0.15559328 -0.01303941 0.073519848 -0.013660595 0.07590656
-42.515381 22.998331 0.15224817 0 0 0 0
-42.811783 22.986607 0.152412 -0.16548333 0.0092435181 -0.057167832 0.17532352
-42.846035 22.918648 0.152427 -0.16548333 0.0092435181 -0.057167832 0.17532352
-43.685196 23.195381 0.15090936 0 0 0 0
-37.570431 19.775288 0.15831104 0 0 0 0
-33.610691 17.53899 0.16297834 -0.0040687621 0.015507817 0.068563744 0.070413306
-33.474255 17.334896 0.16388926 -0.0066298544 -0.0086574405 -0.17636289 0.17669967
-33.404797 17.165857 0.16383944 -0.010017723 -0.093464673 -0.17221078 0.19619519
-33.349331 17.004829 0.16379786 0.065461606 0.14068678 0.097193509 0.18309717
-33.518509 17.025982 0.16389255 0.095166683 0.004276976 0.10625938 0.14270966
-33.444046 16.856939 0.16383994 0.087917268 0.022088587 0.071284443 0.11532053
-33.830395 16.921284 0.16305742 -0.011442881 -0.016776621 0.0070303977 0.021490023
-33.626987 16.687132 0.16392921 0.072506756 -0.09371426 0.054274082 0.13032755
-33.516541 16.501057 0.16385554 0.13566685 -0.1143453 0.13285071 0.22165209
-46.795544 22.920326 0.14862587 -0.32623824 0.80877793 -0.48561692 0.99818683
-46.889778 22.875423 0.14867593 0.012307927 0.0021074712 -0.0036486238 0.013009188
-47.136223 22.813663 0.14881003 0.12395045 -0.41946641 0.74185681 0.86120111
-38.501289 18.458363 0.1587434 -0.0028215647 -0.017677881 -0.011864863 0.021476584
-38.431839 18.277327 0.1586934 0.018750578 0.2079556 -0.04885643 0.21443896
-38.462349 18.144377 0.15870194 -0.027551115 -0.066117972 0.016113229 0.073418565
-34.873299 16.304342 0.16259205 2.7477741e-05 0.030878261 -0.11581934 0.11986487
-34.860817 16.166353 0.16257586 -0.0066151917 0.020851418 -0.1322722 0.13406892
-38.760532 17.917692 0.15885326 0.10181488 -0.053964972 0.13102007 0.17448424
-32.875866 14.925706 0.16539246 0.11330249 0.027276009 -0.043987446 0.12456457
-43.930103 19.828197 0.15284893 0.010589436 -0.0085980594 0.019738257 0.023992948
-44.290501 19.825537 0.15304998 -0.0036474019 -0.00046336651 -0.002504006 0.0044484036
-44.276039 19.653555 0.15303183 -0.0079475939 -0.0063785017 0.0048399866 0.011281623
-40.547989 17.834379 0.15684272 0 0 0 0
-33.70583 14.738504 0.16483864 -0.10621864 0.3063696 0.1387381 0.35269389
-33.722328 14.620539 0.16483958 0.10173491 -0.1431528 0.036081538 0.17928913
-33.825798 14.540648 0.16489136 0 0 0 0
-36.629276 15.622088 0.1615206 0 0 0 0
-33.650875 14.216537 0.16477183 0.011270076 -0.073276192 -0.14646937 0.1641636
-33.46545 14.014396 0.16565485 -0.080782488 0.45458382 -0.76910174 0.89704502
-32.97113 13.684987 0.16635759 -0.026985943 0.061313096 -0.029004484 0.072998606
-34.956928 14.389729 0.16350849 0 0 0 0
-32.948898 13.494996 0.16633174 0 0 0 0
-32.980392 13.388042 0.16634156 -0.69345003 -0.017416704 0.71591806 0.99685252
-33.015888 13.282093 0.16635367 0.0081554055 0.048809011 0.0039133728 0.049640149
-48.975845 19.58901 0.14865896 0 0 0 0
-35.157162 13.897997 0.16358599 -0.26100522 -0.18154854 0.40278709 0.51314819
-35.284626 13.82213 0.16365165 -0.073393181 -0.078680485 0.12792347 0.16715738
-42.01759 16.40802 0.15657489 0 0 0 0
-35.428345 13.688287 0.1637224 -0.051980689 -0.023047149 -0.068277277 0.088853523
-49.096275 18.841272 0.14968437 -0.77711391 0.60575593 0.1686717 0.99964815
-49.21579 18.710413 0.14874406 -0.73036551 0.65417981 0.032860268 0.98105294
-49.291313 18.563513 0.14877814 -0.013483614 -0.0060904026 0.048524041 0.050729513
-49.522785 18.474752 0.1489031 0.044005096 0.0010641515 -0.057742774 0.072607227
-48.560646 17.940941 0.15033239 0 0 0 0
-48.348995 17.775774 0.15020405 0 0 0 0
-36.084461 13.109004 0.16404791 0 0 0 0
-38.692146 13.928326 0.16055833 -0.029538929 0.0096112937 -0.050217569 0.059048537
-34.791889 12.389908 0.16527742 0 0 0 0
-38.787163 13.689459 0.16059561 -0.038167834 -0.06085147 -0.037290141 0.080933549
-39.060593 13.650726 0.16074587 -0.01779975 -0.11218703 0.12351486 0.16780549
-38.716965 13.461434 0.16054122 -0.14134073 0.18243636 0.079770602 0.2441794
-38.851444 13.372579 0.16061048 -0.17784294 0.10263276 -0.039793856 0.20915341
-33.690517 11.464025 0.16659732 0.010634243 -0.040844269 -0.024413496 0.048758183
-33.771996 11.375116 0.1666362 0.010634243 -0.040844269 -0.024413496 0.048758183
-33.904465 11.302255 0.16670467 0.008045733 -0.040826879 -0.022000551 0.047070079
-33.826996 11.159204 0.16665101 0 0 0 0
-32.602859 10.639133 0.16793032 -0.038148969 0.068868607 -0.1369931 0.15800422
-32.507141 10.551059 0.16787036 -0.0051867068 -0.0054386482 -0.0808869 0.081235282
-32.489647 10.434061 0.16785175 -0.0034798086 -0.035634331 -0.088761352 0.095710456
-32.479153 10.31907 0.16783716 -0.034509152 0.054341428 -0.15892409 0.17146644
-32.482655 10.209092 0.16783072 -0.020803779 -0.061905295 -0.099067204 0.11865654
-20.032583 6.1879616 0.18158497 0.050086938 0.013192862 0.0088036517 0.052538149
-20.280987 6.1971908 0.18072197 0.023901097 0.003962636 0.022948276 0.033370472
-20.180479 6.0981069 0.18065621 0.031582795 0.0065073669 0.027412213 0.042323139
-39.895412 12.084813 0.16010854 0 0 0 0
-39.920929 11.956862 0.16011418 0 0 0 0
-30.584923 9.0344858 0.17068154 0 0 0 0
-28.981846 8.457058 0.17174201 0.036137372 -0.14676557 -0.16457723 0.22345403
-29.023325 8.3721104 0.17175794 -0.0078364015 0.0088040233 0.013771921 0.018126937
-29.048817 8.2811489 0.17176445 0.74432069 -0.43645167 0.21122405 0.88832372
-29.061306 8.1871758 0.17176348 -0.00063347816 0.091028348 0.099625126 0.13495083
-29.162527 8.1672745 0.17181812 0.004612565 0.056700289 0.082873374 0.10051963
-29.216009 8.0843372 0.17184089 0.049923658 0.00048300624 -0.18752824 0.19406043
-29.2285 7.9903641 0.17183989 0.016813457 -0.098817661 -0.32170701 0.33696145
-29.312975 7.9154563 0.17188059 -0.78825098 0.48360598 -0.14701605 0.936391
-39.509014 10.567734 0.16178739 0 0 0 0
-38.10487 10.062482 0.16296369 0 0 0 0
-40.04467 10.512259 0.1610842 0 0 0 0
-29.105757 7.5203214 0.17173134 -0.090588778 -0.023838416 -0.3538298 0.36601931
-28.858305 7.3601112 0.17257956 -0.11955938 0.028897017 0.19002171 0.22635753
-28.755821 7.2390323 0.17251188 -0.038612604 0.039600149 0.11462636 0.12727258
-28.794312 7.1530824 0.17252582 -0.031992942 -0.065317437 0.018649265 0.075084694
-28.856789 7.0741544 0.17255375 0.0069859028 0.019791007 0.015243277 0.025939241
-29.028244 7.0213261 0.17264476 0.04031688 0.070343524 -0.02451022 0.084701911
-29.078482 6.9853797 0.17266965 -0.0015501082 -0.0031879544 0.015532421 0.015931793
-28.970999 6.864296 0.17259902 0.80404806 -0.57383484 -0.089047678 0.99182111
-29.044479 6.7863789 0.17263316 0.067557216 -0.0063741505 0.1554608 0.16962509
-29.112959 6.7074566 0.17266443 0.10498439 -0.014923394 0.1330307 0.1701223
-29.436386 6.6867695 0.17184328 -0.025301836 -0.026613593 0.026581526 0.045332592
-29.838802 6.6811557 0.17206769 0.29964799 -0.14141759 0.28387699 0.43631867
-29.658333 6.5440049 0.17195474 -0.050813809 -0.00049969554 0.025938664 0.057053547
-38.583801 8.4712496 0.1631159 0 0 0 0
-32.095604 6.9302807 0.16935217 0 0 0 0
-32.213081 6.8514071 0.16941136 0.36239201 -0.56237918 0.062511533 0.671942
-32.189587 6.7424035 0.16938898 0 0 0 0
-32.745995 6.7529378 0.16870184 -0.71878386 0.65361202 0.078887194 0.97472155
-32.943459 6.6881394 0.16880716 0 0 0 0
-35.594482 7.1156201 0.16633075 -0.68810326 -0.18520419 0.65848678 0.97025335
-38.480209 7.6363125 0.16299437 0 0 0 0
-38.435745 7.502296 0.16295904 0 0 0 0
-38.595238 7.4094687 0.16304165 0 0 0 0
-32.687782 6.1609859 0.16961896 0 0 0 0
-31.399506 5.8148026 0.17086576 0.047031164 0.12115985 -0.063043267 0.14445101
-31.351019 5.7047749 0.17082882 0.062722176 0.065545939 -0.071855798 0.11573071
-31.16255 5.5706158 0.1707111 -0.016997278 -0.043974265 -0.0025327504 0.047212902
-34.454269 6.1087046 0.16760711 0 0 0 0
-33.945862 5.9092484 0.16830435 0 0 0 0
-31.366776 5.3558507 0.17080656 0.062238485 -0.014619708 -0.15824455 0.17067133
-31.405275 5.2619038 0.17081973 -0.0092688799 -0.01232639 -0.0065421462 0.016752662
-31.416775 5.1639318 0.17081736 0.039021254 -0.071156621 -0.16802806 0.18659943
-31.679241 5.1061969 0.16995966 0.35565412 -0.79529738 0.4552246 0.98296344
-31.70974 5.0102429 0.16996814 0.064434528 -0.1070725 -0.11427665 0.16933836
-32.063942 5.0155854 0.17016782 0.54913008 -0.78438592 0.23543714 0.98602021
-31.874474 4.8844252 0.1700494 -0.13663054 -0.072486967 0.03364414 0.15828516
-32.338913 4.8538814 0.16930795 0.020731032 0.13275436 -0.28784394 0.31765962
-32.247429 4.7378125 0.17024596 0.024431378 0.044278979 -0.1591173 0.16696057
-33.364792 4.7968884 0.1688804 -0.046977792 0.1164169 0.27998883 0.3068445
-33.279308 4.6798263 0.16882178 -0.1197724 0.18702519 0.37208489 0.43332553
-33.587524 4.6701283 0.16899458 0 0 0 0
-33.726021 4.5822797 0.16806476 0.063654393 0.54354155 -0.46669301 0.71922994
-32.907627 4.3665218 0.16958402 -0.61696219 -0.45659053 0.32429391 0.83323699
-32.975128 4.2716045 0.16961339 -0.69920218 -0.22219963 0.33150551 0.80507904
-34.123505 4.3137169 0.16826478 0.25556296 0.061949484 -0.18003863 0.31869119
-34.092022 4.2017069 0.16823691 0.089885503 0.076668553 -0.057011753 0.13117854
-32.824673 3.9415183 0.16949815 -0.06320405 -0.20140293 -0.28746843 0.35664546
-34.264767 4.0619011 0.16832173 -0.018935591 -0.10925998 -0.039725631 0.11778975
-34.457264 3.9761057 0.16742261 -0.014135808 -0.018069983 -0.0024762452 0.023075465
-34.590763 3.8822539 0.16748947 -0.053825647 -0.0054044724 0.038472414 0.066381738
-24.033329 2.6131718 0.17841072 0.64789259 -0.65800381 0.039959539 0.92430007
-34.674782 3.6743753 0.16751795 -0.018522799 0.050706714 0.092887819 0.10743561
-34.563313 3.5532892 0.16744384 -0.066460818 -0.026520729 0.051518023 0.088173099
-35.074776 3.4968007 0.16672771 -0.65474647 0.73388398 0.097427711 0.98831713
-35.289013 3.4630167 0.16684572 0.59166813 -0.41789693 -0.082716696 0.72907549
-35.266533 3.3500164 0.16682264 0.73236525 -0.30659074 -0.13273598 0.80496931
-34.998074 3.2147791 0.16765831 -0.00034028292 0.051843792 -0.07231465 0.088979229
-35.69453 3.1674709 0.1670479 0.35574254 -0.19371659 0.60491836 0.72801447
-35.792046 3.063587 0.1660935 0 0 0 0
-35.783562 2.9516006 0.16607831 -0.059830084 0.070374876 -0.51426125 0.52249104
-35.762085 2.8376012 0.16705555 -0.059830084 0.070374876 -0.51426125 0.52249104
-36.043324 2.803884 0.16621163 0 0 0 0
-57.847324 4.3290086 0.14470401 0 0 0 0
-59.4828 4.2656369 0.14362806 0 0 0 0
-59.632381 4.0888276 0.14269985 0 0 0 0
-59.568977 3.8978109 0.14364956 0 0 0 0
-59.557568 3.710845 0.14362901 0 0 0 0
-60.636589 3.1140561 0.14219692 0.064391434 0.062363029 -0.0099376738 0.090189591
-60.880173 2.9363401 0.1423218 0.0077144206 -0.014751717 0.14025368 0.14123817
-60.863773 2.7443707 0.14229773 -0.11525556 0.32515764 -0.17636853 0.38744962
-60.860371 2.5544138 0.1422811 -0.32799432 -0.2254343 0.80287004 0.89610332
-52.263992 2.1110234 0.15035799 0.18163887 -0.5083003 -0.45077246 0.70324796
-52.086571 1.9418877 0.15024312 0.0053762197 -0.035595872 0.0091531873 0.037144996
-52.321133 1.7871555 0.15036361 -0.027478546 -0.01952035 0.028956622 0.044436477
-52.084709 1.6169615 0.1502149 0.026178956 0.00019784272 -0.03315866 0.042247765
-52.068283 1.4539833 0.15019183 0.080571413 -0.049235165 -0.10930902 0.14444485
-52.110859 1.292063 0.15020233 0.10613823 0.075887904 -0.11698127 0.17523959
-72.091362 1.4488044 0.13058683 0 0 0 0
-57.448212 0.97642118 0.14521344 0 0 0 0
-52.383862 0.72746497 0.15030937 0 0 0 0
-51.92844 0.55905312 0.15103549 0.07024762 -0.02422604 0.034607798 0.081971511
-51.698013 0.39586288 0.15089001 -0.013877869 0.054528341 0.05183734 0.076505199
-50.417591 0.22963247 0.15214604 0 0 0 0
-50.266159 0.072518595 0.15204574 -0.0032719672 0.010065764 0.016882047 0.019925583
-49.417717 -0.079503886 0.10599679 0 0 0 0
-49.373974 -0.23542383 0.10608144 0 0 0 0
-49.185238 -0.3902002 0.10724819 -0.0031284988 0.016477913 0.034794532 0.038626008
-48.953632 -0.6209166 0.10746819 0 0 0 0
-48.867893 -0.77479565 0.10757565 0 0 0 0
-49.637142 -0.94451737 0.10620226 0 0 0 0
-49.990269 -1.0308468 0.1050341 0.10683148 0.11703268 -0.12454641 0.20154756
-49.968529 -1.1887879 0.10510657 0.42326915 0.014129639 -0.062029466 0.42802346
-48.713821 -1.312517 0.10786761 0.032821734 0.015433101 -0.0010746419 0.036285006
-48.668087 -1.465436 0.10795154 -0.00079948478 8.8685294e-05 -5.5134296e-06 0.00080440752
-48.569351 -1.616303 0.10906476 -0.43880409 -0.14116104 0.29970667 0.54981774
-48.71661 -1.7754115 0.10804109 -0.43627918 -0.13690832 0.29241467 0.54276121
-48.509754 -1.8451905 0.10918505 -0.016437232 0.058731526 -0.0014250726 0.061004963
-48.438023 -1.9960843 0.10928269 -0.017529607 0.036139406 0.020606309 0.045143813
-48.462288 -2.151072 0.1093272 0.036526978 -0.063931286 -0.10086242 0.12487857
-48.50555 -2.3060787 0.10936087 0.0055730939 -0.013460197 -0.01367861 0.01998351
-48.441822 -2.4569805 0.1094537 -0.00096410513 -0.029688664 0.036893614 0.047365442
-48.413094 -2.6099167 0.10952733 -0.074762285 0.16805342 0.12917966 0.22476372
-48.089375 -2.7445657 0.10976154 -0.095349908 0.12868869 -0.098001838 0.18776779
-48.054646 -2.8954966 0.10983761 -0.096767098 0.20482555 0.29204315 0.36960328
-70.900406 -4.3906879 0.062427308 0 0 0 0
-49.202976 -3.1995585 0.10729925 -0.80331326 -0.0016268641 0.25136662 0.84172446
-49.284237 -3.3616006 0.10731356 0.0068500638 -0.022092924 0.068077832 0.07190001
-49.053787 -3.6583037 0.10855467 -0.051034838 0.083965838 -0.10327965 0.14255351
-48.94706 -3.806164 0.10867006 0.0065223277 0.012358159 -0.055286717 0.05702531
-47.039612 -3.8822677 0.11277936 0.0049154162 0.0066285431 0.058532894 0.059111744
-47.060883 -4.0342536 0.11282331 0.0021499395 -0.0088179633 0.0079185292 0.012044991
-47.05616 -4.1842146 0.11288115 -0.0072520673 -0.010420214 -0.066048786 0.067257829
-47.093426 -4.3372159 0.11291625 -0.0045606792 0.04396851 -0.089837141 0.10012364
-47.023708 -4.4811144 0.1130085 0.0054602027 0.011309244 -0.032030851 0.03440477
-46.906994 -4.6199679 0.1131254 -0.0066309869 -0.019327948 0.017136618 0.026668394
-46.957127 -4.6999989 0.1131263 -0.0077438354 0.033457581 0.02120851 0.04036307
-47.008671 -5.0059795 0.11320885 0.02537483 -0.035226345 -0.044979185 0.062513232
-46.998947 -5.1559358 0.11326897 -0.034207493 -0.013052791 0.030185878 0.047452241
-47.202198 -5.3290958 0.11221708 0.10425793 0.0150709 -0.060939044 0.12169805
-46.970501 -5.4538398 0.1133933 -0.27878451 0.10144445 0.095876187 0.31177559
-47.198616 -5.5560403 0.11230151 -0.22578315 0.15667172 0.08093369 0.28648615
-48.291763 -5.8390484 0.10978677 0.014195412 0.0025431067 -0.038994789 0.04157608
-48.287037 -5.9940081 0.10984562 0.019417375 0.13946399 -0.090985119 0.16764705
-48.419296 -6.1660981 0.10983327 0.0043676496 -0.099728636 -0.0016964823 0.099838644
-48.288582 -6.3049383 0.10995722 -0.034843743 0.14709929 0.068802327 0.16609047
-48.030884 -6.4256577 0.11114615 -0.049626634 0.048668563 0.037932321 0.07918518
-35.887722 -4.9210997 0.13645174 -0.055352133 0.0056835711 0.054670721 0.078006729
-47.759331 -6.620347 0.11136933 0 0 0 0
-47.766605 -6.7763186 0.11142123 0 0 0 0
-34.576672 -5.0218 0.13922343 0.027103946 -0.7501719 0.30562589 0.81049347
-34.787952 -5.164978 0.13815427 0.32837433 -0.81260371 0.39547035 0.96153593
-47.686722 -7.3821025 0.1116828 -0.0039047599 -0.14538749 -0.15331151 0.21132247
-47.876968 -7.5662465 0.11164133 0 0 0 0
-48.486015 -7.7408023 0.11036083 0 0 0 0
-51.394848 -8.3705034 0.10394892 0 0 0 0
-50.237103 -8.8362637 0.1067654 0 0 0 0
-50.312359 -9.0132961 0.10678577 0 0 0 0
-50.983379 -9.2169056 0.10548098 0 0 0 0
-51.015644 -9.3888969 0.10552362 0 0 0 0
-38.848015 -7.2855 0.13060911 0.042589605 -0.10569936 -0.0050508678 0.11406902
-38.785328 -7.4004154 0.13068353 -0.0011080205 -0.00098304451 -0.0041598827 0.0044157342
-38.709644 -7.5133185 0.13076441 0.011113733 -0.021196917 -0.0067160875 0.024858203
-38.612965 -7.6222024 0.13085556 0.0029054284 -0.0010721684 0.0060879588 0.0068303957
-38.554283 -7.7371216 0.13092744 0.019069403 -0.020518661 0.007386893 0.028969359
-38.469452 -7.78403 0.13099073 -0.035092562 0.020784438 -0.040445194 0.057439487
-38.396767 -7.8959365 0.13106926 -0.026459992 0.0074464381 -0.052736998 0.059470762
-38.311089 -8.0048313 0.13115391 0.0098412633 -0.02797392 -0.021051377 0.036366895
-38.223412 -8.1137238 0.13123958 0.020377755 -0.037297174 0.0071583539 0.043099582
-38.131733 -8.2206135 0.13132669 0.041699052 -0.16118282 -0.057910897 0.17627361
-38.223022 -8.3666725 0.13132501 -0.065645099 0.19094759 0.20864236 0.2903479
-64.432007 -14.285841 0.077728659 0 0 0 0
-71.438889 -16.189222 0.062475249 0 0 0 0
-71.249146 -16.382988 0.063649908 0 0 0 0
-65.844505 -15.36296 0.074316226 0 0 0 0
-48.838692 -11.734247 0.10955475 0 0 0 0
-48.818836 -11.811211 0.10959201 0 0 0 0
-48.809113 -11.972166 0.10965217 -0.052057654 -0.19800511 0.044938914 0.20960803
-62.580517 -15.754683 0.081275523 0 0 0 0
-62.392799 -15.917461 0.081436336 -0.26539451 -0.22164965 0.13885149 0.37261581
-62.289062 -16.100319 0.08155708 -0.26499337 -0.24247517 0.14771122 0.38837391
-62.134335 -16.270128 0.081701584 0.021143436 0.039107457 -0.045751899 0.063794002
-62.033482 -16.348011 0.082784452 -0.28480646 -0.22430107 0.14821959 0.3916564
-61.929749 -16.530867 0.082904793 -0.2685397 -0.2352725 0.13325754 0.38108304
-65.626083 -17.735178 0.075259857 0 0 0 0
-62.855999 -17.20261 0.080618903 0 0 0 0
-65.911469 -18.259331 0.074280344 0 0 0 0
-68.949936 -19.332029 0.067957014 0 0 0 0
-62.166889 -17.648836 0.082153417 0 0 0 0
-61.879082 -17.67355 0.082321532 0 0 0 0
-61.901314 -17.890522 0.0823825 0 0 0 0
-64.092216 -18.960398 0.077528283 0 0 0 0
-63.748543 -19.078037 0.078758344 0 0 0 0
-64.02494 -19.601185 0.077780761 -0.25549155 -0.34147191 0.23893422 0.48884413
-64.224998 -19.773336 0.077727646 -0.20782852 0.15338701 0.24822949 0.35824314
-63.930317 -19.904022 0.077934332 -0.20782852 0.15338701 0.24822949 0.35824314
-63.050804 -19.850183 0.079402648 0 0 0 0
-58.725269 -18.697262 0.088409245 0 0 0 0
-61.116833 -19.668354 0.083410375 0.046875447 -0.058328629 0.039693661 0.084706098
-60.927132 -19.820137 0.084565133 -0.038173616 0.099869996 -0.12572896 0.16504246
-60.761303 -19.871964 0.084673651 0.024490446 0.074695021 -0.20428221 0.21888432
-60.62059 -20.03879 0.084806077 -0.20288643 0.23416743 0.063979164 0.31637102
-64.393723 -21.506102 0.077209532 0 0 0 0
-60.76004 -20.510818 0.084884048 -0.028183252 0.25586361 0.060879722 0.26451245
-60.705299 -20.705723 0.084977858 0 0 0 0
-61.383335 -21.152275 0.082750678 0 0 0 0
-66.000275 -23.086292 0.073843263 0 0 0 0
-61.465919 -21.724228 0.082891248 0 0 0 0
-61.179253 -21.840925 0.083086342 0 0 0 0
-61.159504 -22.051861 0.08316531 0.16927925 -0.26791528 -0.058842137 0.32232973
-46.994263 -17.133318 0.11234292 0 0 0 0
-46.931568 -17.279228 0.112423 0 0 0 0
-60.751366 -22.556355 0.084551021 0 0 0 0
-62.479923 -23.307852 0.080846049 0 0 0 0
-62.334213 -23.477674 0.08098013 -0.33712292 -0.33782828 0.35500741 0.59481937
-62.153515 -23.634464 0.081128985 0 0 0 0
-68.371674 -26.235867 0.067561492 0 0 0 0
-68.495857 -26.53092 0.067588009 0 0 0 0
-68.417107 -26.748796 0.067700587 0 0 0 0
-68.141418 -26.8895 0.067895904 0 0 0 0
-68.335464 -27.090641 0.067853957 0 0 0 0
-68.37468 -27.355619 0.067916662 -0.47760156 0.17233111 0.55352819 0.75112891
-68.538849 -27.671707 0.066927269 0 0 0 0
-68.920929 -28.078985 0.066847831 0 0 0 0
-68.513519 -28.417517 0.067176096 0 0 0 0
-64.71846 -27.449093 0.074934147 0 0 0 0
-64.387825 -27.549755 0.075144619 -0.11533175 -0.010441899 -0.15471482 0.19325404
-64.189125 -27.704533 0.076300167 -0.11944786 0.069328666 -0.15092285 0.20457752
-64.046417 -27.883358 0.07643263 0.015492529 -0.030510381 0.010361373 0.035752762
-63.988674 -28.098257 0.076530069 -0.0017385781 -0.059038524 -0.042754482 0.072914444
-64.017776 -28.231256 0.076555237 -0.0041052997 0.042850684 -0.12307467 0.13038561
-64.07399 -28.497253 0.07560654 0.0020876229 0.024551533 0.038427278 0.045648567
-67.420944 -30.235079 0.068332441 0 0 0 0
-67.350197 -30.457962 0.068438947 0 0 0 0
-15.294376 -7.8532395 0.17754754 0.043458253 -0.077848807 0.010157399 0.089734219
-15.318732 -7.9262571 0.17755221 0.018079251 -0.03193669 0.0038508251 0.036900412
-15.287117 -7.9722276 0.17757861 0.025253505 -0.032573968 0.028763391 0.050260674
-15.272306 -7.995214 0.17759129 0.02562499 -0.036024556 0.020425431 0.048699148
-15.222704 -8.0321684 0.17762452 0.018993825 -0.021498919 0.024047613 0.03743336
-15.205077 -8.0841513 0.17764519 0.008841753 -0.0025330186 0.037710492 0.038815897
-15.180458 -8.1331272 0.1776686 0.0047769845 0.0077219605 0.069406971 0.069998398
-15.119854 -8.1630745 0.17770551 -0.012051284 0.022998959 0.026094995 0.036812149
-15.104234 -8.2170582 0.17772548 -0.0045040846 0.014156491 0.034276005 0.037356894
-15.068619 -8.260026 0.17775281 0.005225122 0.002191633 0.036790904 0.037224669
-15.036818 -8.2739983 0.17777169 0.0018806159 0.0056409538 0.033189453 0.033717901
-15.011198 -8.3219738 0.17779511 0.0057859123 0.0014115274 0.039220676 0.039670274
-14.958595 -8.3559275 0.17782867 -0.00066369772 0.0064392984 0.021656491 0.022603288
-14.932977 -8.403904 0.17785199 -0.0052062571 0.014309138 0.033006139 0.036349166
-14.908359 -8.4528809 0.17787498 -0.0077148378 0.017005175 0.033964824 0.038759567
-14.881744 -8.5008554 0.17789868 0.0098122358 -0.0084674358 0.017906234 0.022104539
-14.840133 -8.5398188 0.17792769 -0.0010704696 0.0055820346 0.018390559 0.019248836
-14.832322 -8.5668106 0.17793745 -0.0023492873 0.0077300072 0.020364609 0.021908661
-14.77772 -8.5987635 0.1789712 -0.005146116 0.010791779 0.017487027 0.021183509
-14.754102 -8.6477413 0.17799345 -0.00026676059 0.0055090487 0.027475938 0.028024061
-14.720491 -8.6917105 0.17901944 0.00095015764 0.0032269359 0.026415925 0.026629252
-14.70187 -8.7436924 0.1780398 0.0056147277 -0.0017258823 0.044680595 0.045065057
-14.651262 -8.7766485 0.17907156 5.453825e-05 0.006735146 0.054740354 0.055153165
-14.68743 -8.8296776 0.17806543 -0.0028532743 0.0087195933 0.052368332 0.053165916
-14.561863 -8.818572 0.17912398 -0.0019391477 0.009160459 0.07250645 0.073108546
-14.54524 -8.8715563 0.1791434 0.0044234991 0.00030678511 0.080867186 0.08098866
-14.544614 -8.9345531 0.17915718 -0.0060586035 0.011338532 0.068809822 0.070000432
-14.375068 -8.8954124 0.17923069 0.0035665333 0.0013032556 0.064832434 0.064943537
-20.904234 -12.951756 0.16494611 -0.1740807 0.25855798 -0.1264016 0.33635351
-15.566227 -9.7553825 0.17683963 0.11587344 0.067377537 -0.024036005 0.13617678
-21.231596 -13.291013 0.16386385 -0.21602865 0.23734364 -0.41969785 0.52834332
-20.998068 -13.239812 0.16496754 -0.48352826 0.16218174 -0.14973217 0.53152817
-20.813509 -13.215653 0.16505317 0.046078473 0.11758293 -0.10510606 0.16430537
-17.441933 -11.258894 0.17225972 0.077847213 0.029985815 0.026966605 0.087672889
-17.51026 -11.380944 0.17225362 -0.11464106 -0.041968435 0.021788903 0.12401079
-22.685818 -15.051114 0.16055916 0 0 0 0
-20.876118 -13.959641 0.16419485 -0.06375055 0.29125655 -0.55999434 0.63441956
-20.759529 -13.977538 0.16425598 -0.034844801 0.26673546 -0.60970652 0.66641128
-20.647942 -13.99844 0.16431522 -0.16608551 0.16496962 -0.50494212 0.55656618
-20.443226 -13.908272 0.16539451 -0.010927945 0.066809177 0.15516628 0.16929105
-20.268673 -13.885122 0.16547421 -0.055771511 0.10397372 0.24671575 0.27347699
-20.253036 -13.969103 0.16550075 -0.10832024 0.1974844 -0.62095988 0.66054869
-20.127457 -13.976994 0.1655634 0.11222377 0.15708108 0.078554302 0.20842125
-20.269728 -14.1691 0.16553755 0.11770976 -0.025440633 -0.037578106 0.12615438
-20.244097 -14.247072 0.16556738 0.5937075 -0.24479251 0.25959098 0.69267559
-20.22246 -14.327046 0.16559565 -0.0074342787 0.10375574 0.18311171 0.2105954
-19.903812 -14.151788 0.16571039 -0.0054180026 -0.07971172 -0.049082667 0.093767911
-19.076628 -13.66312 0.16800041 -0.2912516 0.022928834 -0.14637062 0.3267684
-18.709188 -13.492821 0.16813923 0.42769998 -0.28336501 -0.066835344 0.51738763
-18.685556 -13.565796 0.16816631 0.49078193 -0.36704034 -0.010330871 0.61293739
-18.600962 -13.594723 0.16821289 0.031714618 -0.041784614 0.082627848 0.09787304
-18.552345 -13.649678 0.16824783 0.11251651 -0.04319343 0.062894225 0.13594602
-18.625662 -13.793729 0.16824387 0.53016859 -0.44265392 -0.11008949 0.69938612
-18.637835 -13.848736 0.16824986 0.45689636 -0.49217069 -0.25909266 0.71980226
-18.071514 -13.522281 0.16944863 -0.043530386 0.0048109591 -0.076544061 0.088187486
-17.60914 -13.26791 0.1706132 -0.030323938 0.018576592 -0.037617296 0.05176574
-17.405615 -13.202744 0.17069529 0.12997784 -0.060461074 0.28713182 0.3209275
-17.184103 -13.122565 0.17178251 -0.070196271 -0.036854982 -0.0081296777 0.079698794
-17.130495 -13.168517 0.17181709 0.0244077 0.011042356 0.033501569 0.042895507
-16.966949 -13.129385 0.1718854 0.0068801343 -0.0058889985 -0.060830083 0.061500534
-16.765251 -13.018224 0.17195663 -0.067923285 -0.015054822 -0.04238021 0.081463508
-16.562735 -12.94806 0.17203647 0.022089211 0.0031994283 -0.017155692 0.028151153
-16.369211 -12.881904 0.17311279 0.056566417 -0.018787593 0.027110256 0.065480523
-16.248646 -12.871806 0.1731665 0.022549823 -0.00078064203 -0.020326197 0.030368704
-16.35894 -13.041887 0.17314969 0.05252555 -0.02781415 0.078808695 0.098708518
-16.159428 -12.969728 0.17322718 0.11937264 -0.03175199 -0.0094002709 0.12388051
-16.064661 -12.935652 0.17326397 0.0024192668 0.0077621639 -0.057220079 0.057794824
-16.24791 -13.164791 0.1732253 -0.016462825 0.0015604198 -0.050541352 0.053177889
-16.188309 -13.201741 0.17325996 0.37028149 -0.32311392 0.057660371 0.49480876
-4.0332503 -3.4972804 0.20090669 -0.002216965 -0.0019454062 0.0044236677 0.0053168009
-4.0146761 -3.5052748 0.20091282 -0.002216965 -0.0019454062 0.0044236677 0.0053168009
-4.0030689 -3.5172734 0.2009168 -0.002216965 -0.0019454062 0.0044236677 0.0053168009
-4.0062714 -3.5312803 0.20091613 -0.002216965 -0.0019454062 0.0044236677 0.0053168009
-15.469118 -13.162161 0.17457928 0.040391743 -0.069684386 0.031758983 0.086579673
-15.440499 -13.222136 0.17460364 -0.0030549467 0.0032757074 0.015360091 0.015999854
-15.41188 -13.28211 0.17462794 0.016651243 -0.030438974 -0.02133001 0.040727932
-16.217722 -14.053728 0.17241295 0 0 0 0
-15.389617 -13.432088 0.1736664 0.002815634 -0.001186654 -0.039266888 0.039385587
-15.369813 -13.458072 0.17368017 -0.010206342 0.032475621 -0.013392935 0.036581498
-15.320209 -13.50103 0.17371044 0.0014387071 0.0047132075 -0.05943393 0.059637874
-15.418505 -13.672103 0.17369877 0.0020326078 -0.02560718 0.018726986 0.031789292
-15.309941 -13.664016 0.1737456 0.001552403 -0.019311029 -0.051796481 0.055301007
-15.317293 -13.756019 0.17375953 -0.0062026381 -0.044231463 -0.096041225 0.10591889
-15.365623 -13.886053 0.17376234 -0.017307818 0.023730384 -0.10649177 0.11046804
-15.350819 -13.91804 0.17377485 -0.023502618 -0.003677208 -0.10997153 0.11251503
-15.349179 -14.004036 0.17379156 -0.021071941 0.0039898716 -0.094442531 0.096846983
-15.327555 -14.073017 0.17381388 -0.026775748 -0.02063464 -0.13222776 0.13648044
-15.37089 -14.202046 0.17381862 -0.021865368 0.0089491587 -0.12889113 0.13103856
-15.439199 -14.353096 0.1728164 -0.010768741 -0.012546737 -0.074013725 0.075838104
-15.386598 -14.396053 0.17284742 -0.0060142577 0.044958487 -0.070174299 0.083557583
-15.34998 -14.452022 0.17287375 0.010976553 0.041196011 -0.1433299 0.14953615
-15.779866 -14.897346 0.17176692 -0.10152733 -0.27135009 -0.12054636 0.31379944
-15.546388 -14.773166 0.17284648 -0.047179192 -0.11756697 0.075137548 0.1472872
-15.459805 -14.784098 0.17288634 -0.024095356 -0.037243601 0.064592645 0.078357399
-15.607062 -15.017206 0.17286453 0.0033701062 0.040961254 -0.01003059 0.042305965
-15.461523 -14.973092 0.17291993 -0.010298043 -0.025244962 0.026081249 0.037730485
-15.402923 -15.011045 0.17295225 0.0031026304 -0.0040752422 -0.010489672 0.011673352
-15.356317 -15.061007 0.17298147 -0.0027800202 -0.071994893 -0.0068431199 0.072372794
-15.572342 -15.317168 0.17193401 -0.040045083 -0.089973867 0.015424768 0.099683642
-15.553712 -15.395151 0.17195612 -0.033772975 -0.044265121 -0.026570257 0.061692733
-16.480398 -16.398842 0.16973598 0.0054057837 -0.010538846 0.025387265 0.028014336
-16.428791 -16.451797 0.16976802 0.0063896179 -0.011756405 0.016838748 0.021507759
-16.380184 -16.507757 0.16979922 0.0063896179 -0.011756405 0.016838748 0.021507759
-16.331573 -16.562717 0.16983016 -0.0059269071 0.0097091049 0.02071994 0.023637066
-16.286959 -16.621681 0.16986002 0.0019448102 -0.0033049881 0.017834844 0.018242449
-9.2472906 -9.5814457 0.18662764 -0.0027610809 -0.0005928874 -0.0072914064 0.0078191869
-9.1957159 -9.5904112 0.18764919 -0.0051160194 -0.00048163533 -0.0041148011 0.0065831007
-9.1301413 -9.5833654 0.18767388 -0.0087345149 -0.0008354485 -0.0071982276 0.011349195
-9.0725632 -9.5843258 0.18769649 0.0042999778 -0.00020587444 -0.0065054391 0.0078008291
-9.0249777 -9.595293 0.18771654 -0.00072159059 -0.00023382902 -0.0036551021 0.00373298
-8.9604044 -9.5882492 0.18774059 -0.0011188313 -0.00024217367 -0.0036634281 0.0038381163
-8.9038324 -9.5902119 0.18776272 0.00081651658 -0.00028717518 -0.0054270886 0.0054956763
-8.8680458 -9.5821867 0.1877754 0.0040029446 -0.00024154782 -0.0059296787 0.0071584219
-8.809474 -9.5811462 0.18779776 0.00093793496 -0.00030270219 -0.005667815 0.0057528671
-8.7508984 -9.5791073 0.1878199 0.0015605837 -0.00019180775 -0.0038721189 0.0041791764
-8.7023134 -9.5870752 0.18783951 -0.0068513136 -0.00054183602 -0.005546378 0.008831556
-8.6427383 -9.5830355 0.18786159 0.0032426296 -0.00030061603 -0.0065109525 0.0072799395
-8.5841646 -9.5799961 0.18788336 -0.0011978 -0.00042232871 -0.0065333396 0.0066556451
-8.5533733 -9.5759764 0.18789445 -0.0020380309 -0.0003362298 -0.0048199166 0.0052438742
-8.4868078 -9.5639315 0.1879179 -0.00187176 -0.00039258599 -0.0056531951 0.0059679328
-8.436224 -9.5678978 0.18793739 0.0038294187 -3.7819147e-05 -0.0022184569 0.0044257687
-8.3896484 -9.5778685 0.18795611 -0.00094717275 -0.00016525388 -0.0024485402 0.0026305502
-8.3340635 -9.574831 0.18797641 -0.0012260778 -0.00028005242 -0.0043295901 0.0045085526
-8.2774954 -9.572794 0.18899712 -0.0094563626 -0.00057071447 -0.0069726203 0.011762905
-8.2249155 -9.5737591 0.18901667 -0.013799338 -6.9469213e-05 -0.0012617428 0.013857076
-8.1851358 -9.558733 0.18902938 -0.027957223 0.00042203069 -9.4972551e-05 0.027960571
-8.1325617 -9.5596991 0.1890488 -0.021504955 0.0012415349 0.00024711154 0.021542182
-8.0779867 -9.5576639 0.1890685 -0.02692553 0.0027575791 0.0045633409 0.02744836
-8.0264082 -9.5586309 0.18908741 -0.035721753 0.0053646564 -0.008375708 0.037080664
-7.9788251 -9.5636015 0.1891053 -0.03545668 0.0071527958 -0.010181265 0.037576545
-7.9092665 -9.5435553 0.18912792 -0.016671859 0.0035359859 -0.027025733 0.031950656
-7.8616877 -9.5485258 0.18914567 -0.010121688 0.0029430985 -0.039780781 0.041153628
-7.8538785 -9.5685215 0.18915094 -0.019872889 0.0058960021 -0.046267614 0.050698981
-7.8362803 -9.6095142 0.18916233 0.029108435 -0.012643069 -0.097081207 0.10213672
-7.8206711 -9.6515074 0.18917309 0.076318517 -0.044113666 -0.093663573 0.12862113
-7.796073 -9.6834946 0.18918578 0.12574893 -0.087932289 -0.10469763 0.18575919
-7.6375842 -9.5533857 0.18922602 -0.055537239 0.021858126 -0.063661791 0.08726389
-7.9596906 -10.00562 0.18816742 0.069623858 -0.21256368 -0.007427305 0.22379893
-7.914113 -10.014592 0.18818472 0.0086829364 -0.025761455 0.013392136 0.030305037
-7.5546045 -9.6043386 0.1892613 0.0093593746 0.023414016 -0.1141049 0.11685779
-7.8187613 -9.9925318 0.1892157 -0.018378735 0.028746009 0.00032782555 0.034120645
-7.5084052 -9.6703148 0.18928529 0.013887942 0.001431495 -0.01039958 0.01740906
-7.7106113 -9.9854641 0.18925276 -0.077625677 0.062897027 -0.084385075 0.13077699
-7.6780243 -10.009445 0.18926704 -0.14781588 0.060021639 -0.11875126 0.19888185
-7.219799 -9.4921255 0.19036369 -0.026848553 0.027950943 -0.099431731 0.10671818
-7.5528941 -9.9793663 0.18930677 -0.080934316 0.045446247 -0.20349397 0.22366385
-7.5211091 -9.9703465 0.18931665 -0.052032199 0.043394715 -0.19859317 0.20983255
-7.1038513 -9.4960566 0.19040346 0.030196996 0.014386147 -0.052830569 0.062529102
-7.4129634 -9.95928 0.18935236 -0.03000154 0.036548376 -0.19220378 0.19793476
-7.2744613 -9.8421869 0.18938573 -0.046604924 -0.0083987713 -0.0092841238 0.048257157
-7.2722273 -9.9681959 0.18940111 0.039656304 0.047767788 -0.19686183 0.20641939
-6.9367175 -9.5549631 0.19046602 0.055411011 0.013747185 -0.049348537 0.075462863
-7.0629787 -9.7850571 0.1894501 -0.087908551 -0.027804106 -0.020450935 0.094441637
-7.1333046 -9.9451122 0.18944494 -0.11969474 -0.043908387 -0.11850405 0.17406318
-6.7889977 -9.5438766 0.1905134 0.033308923 0.0054042935 -0.024281807 0.041572791
-6.9752002 -9.8590117 0.18948749 -0.09836714 -0.028058201 -0.071926929 0.12504734
-8.931777 -12.61138 0.1841552 0 0 0 0
-6.7032204 -9.6148348 0.19054906 -0.026502209 0.0025075972 -0.047292612 0.054270122
-6.7034111 -9.6468372 0.1905525 -0.0038519744 0.0055360198 -0.083352372 0.08362478
-6.6718173 -9.6658211 0.19056475 -0.0053253388 0.0051232278 -0.099219009 0.099493809
-6.4304233 -9.3906593 0.1916122 -0.04717543 -0.0058044493 0.0085652396 0.048296753
-6.4437914 -9.471674 0.19061656 -0.038124457 -0.0014772415 -0.015996173 0.04137069
-9.0147257 -13.195456 0.18320172 0.099989183 -0.45642108 0.30947638 0.5604406
-6.3496461 -9.4636221 0.19164532 -0.039083011 -0.00099343061 -0.018952249 0.04344717
-8.8114767 -13.036321 0.18425165 -0.50148559 0.24407054 -0.2269927 0.60214943
-8.7359228 -13.015272 0.18427496 -0.10918494 -0.17561224 0.10009021 0.22973694
-6.2347054 -9.4545574 0.19168013 -0.023505794 0.0005132556 -0.021439936 0.031819124
-8.6397476 -13.048213 0.184312 0.68005693 -0.34013036 0.19646144 0.78534269
-6.4812369 -9.9477386 0.19065553 0.066522136 -0.035889775 -0.021711484 0.078642599
-6.303782 -9.7496233 0.19068958 0.14510295 -0.04429999 -0.011381865 0.15214106
-6.2941737 -9.8016224 0.19069798 0.24965164 -0.096141219 -0.077070892 0.27840438
-6.3742876 -9.9556808 0.19068953 0.043980822 -0.025131553 0.0018489957 0.050688524
-6.1388903 -9.6655264 0.19073127 0.044500858 0.041678876 -0.17014727 0.18074165
-6.0893297 -9.6574984 0.19174545 -0.035595357 0.037582338 -0.18820536 0.19519407
-6.2395582 -9.9536076 0.19073056 0.027675167 0.020596385 -0.10900449 0.11433331
-5.9112649 -9.51439 0.19178423 0.072990686 0.011941731 -0.086279482 0.11364152
-5.878675 -9.5283747 0.19179529 0.041410781 0.0082072616 -0.080716401 0.091089785
-6.1048341 -9.9495354 0.19077076 -0.046906151 0.0084887743 -0.095434621 0.10667714
-5.8482771 -9.5793638 0.19180934 0.0073347092 0.0039930046 -0.05533459 0.055961225
-5.8596501 -9.6643782 0.1918145 -0.092963889 -0.028511524 -0.14336313 0.17322868
-6.0288529 -10.000499 0.1907986 0.055182844 0.030285478 -0.039567079 0.074349917
-5.8094606 -9.7183571 0.19183454 -0.099297926 -0.052184165 -0.10190044 0.15154856
-5.8517947 -9.854393 0.1908358 0.65342605 -0.73032868 -0.12832236 0.98833811
-5.6533856 -9.6012659 0.19186807 -0.036266908 -0.013830274 -0.039253749 0.05520346
-5.5408773 -9.4831972 0.19188866 -0.013326675 -0.0031203926 -0.010922385 0.017511014
-5.532083 -9.5031958 0.19189307 -0.0028938875 -0.00091457367 -0.0056260061 0.0063924151
-5.4944987 -9.5071764 0.19190405 -0.008428596 -0.001812011 -0.006204186 0.010621513
-5.4549189 -9.5081568 0.19191526 0.0076899156 0.00080874562 -0.0041526686 0.0087768752
-5.4153409 -9.5091372 0.1919264 0.02161964 0.0019211471 -0.0056686401 0.02243286
-5.3757648 -9.5101185 0.19193748 0.026858918 0.0015051365 -0.0081140883 0.028098138
-5.3341947 -9.5080976 0.19194876 0.020730369 0.00041598082 -0.0097071305 0.022894314
-5.3064175 -9.4950829 0.19195516 0.0033916682 -0.00023493171 -0.0063656196 0.0072166277
-5.2778172 -9.5120707 0.19196458 0.0025758184 -0.0003670454 -0.0073580816 0.0078045451
-5.2322493 -9.5020475 0.19197606 0.0053292373 -0.00041627884 -0.0083710775 0.00993222
-5.1946702 -9.5050306 0.19198649 0.0091789616 -0.00026649237 -0.0068941209 0.011482737
-5.1550965 -9.5050116 0.19199714 0.003939854 -0.00027135015 -0.0052731037 0.0065879971
-5.1145253 -9.5029917 0.1930078 6.6708773e-05 -0.00032773614 -0.0049445108 0.0049558096
-5.0749445 -9.5009727 0.19301814 -0.0012910999 -0.00033283234 -0.0045790207 0.0047691874
-5.0561543 -9.5019636 0.1930232 -0.0039267251 -0.00042417645 -0.0048413817 0.0062480457
-5.0105925 -9.490942 0.19303419 0.00025637075 -0.00044095516 -0.0064570457 0.0064771604
-4.9760046 -9.4969263 0.1930438 -0.0018477291 -0.00049930811 -0.0066246223 0.0068955803
-4.9424229 -9.5059118 0.19305336 0.0012617772 -0.00036606193 -0.0058414601 0.0059873816
-4.89885 -9.4958906 0.19306372 0.0019723792 -0.00023114681 -0.004264256 0.0047039972
-4.8602829 -9.4968729 0.19307373 0.0011614896 -0.00016084313 -0.0028785206 0.0031081843
-4.827693 -9.5058594 0.19308288 0.00067210011 -0.0004041791 -0.006292887 0.0063415696
-4.797914 -9.4848433 0.19308856 -0.0012016771 -0.00021010637 -0.0026003718 0.0028722999
-4.760345 -9.4868269 0.19309825 -0.0029725153 -0.00032621622 -0.0033971518 0.0045258044
-4.726759 -9.4938126 0.19310734 -0.00093289092 -0.00026571751 -0.0035725106 0.003701854
-4.6881828 -9.4917955 0.1931168 -0.0025908351 -0.00038135052 -0.004379807 0.0051029958
-4.6496081 -9.4897776 0.1931262 -0.0027967906 -0.00033295155 -0.0037104227 0.0046583395
-4.6160302 -9.4977646 0.19313522 -0.0034016659 -0.00045588613 -0.0054779276 0.0064642751
-4.5764494 -9.4917459 0.1931444 -0.0093572 -0.0007686913 -0.0080886595 0.012392518
-4.5526686 -9.4817352 0.19314931 -0.013960801 -0.00088119507 -0.0088035874 0.016528267
-4.518095 -9.4877205 0.19315825 -0.0082097882 -0.00058186054 -0.0088833533 0.012110043
-4.4775195 -9.479702 0.19316734 -0.01166268 -0.00084790587 -0.015048582 0.019057725
-4.4419394 -9.4816875 0.19317605 -0.0085084941 -0.00067350268 -0.017535955 0.019502763
