# .PCD v0.7 - Point Cloud Data file format
VERSION 0.7
FIELDS x y z normal_x normal_y normal_z curvature
SIZE 4 4 4 4 4 4 4
TYPE F F F F F F F
COUNT 1 1 1 1 1 1 1
WIDTH 73
HEIGHT 1
VIEWPOINT 0 0 0 1 0 0 0
POINTS 73
DATA ascii
7.1187587 -3.8658149 0.48264387 -0.07787773 0.20973887 -0.0074160472 0.22385336
7.0635495 -3.8218336 0.48063225 -0.036675841 0.21396831 -0.070158467 0.22814417
7.0551243 -3.7888548 0.47961998 -0.0043917298 0.22021613 -0.082705513 0.23527566
7.0647025 -3.7658732 0.47960979 0.0067173839 0.20739384 -0.10233633 0.23136564
7.0692906 -3.7408917 0.4795993 0.0084382892 0.16880295 -0.12770672 0.21183637
7.1038661 -3.7309065 0.48059171 0.014545679 0.13978645 -0.11864759 0.18392684
6.9304366 -3.6119528 0.47356206 0.011727929 0.095795251 -0.11888367 0.15312611
6.8970237 -3.5679772 0.47154775 0.0070343018 0.080554262 -0.12202966 0.14638889
6.8988066 -3.554987 0.47154227 0.0097246766 0.079107583 -0.11308959 0.13835402
6.9093947 -3.5340044 0.47153258 0.0058134496 0.066704974 -0.12664875 0.14325941
6.9149599 -3.5090241 0.47052181 -0.0031737089 0.040814653 -0.12071232 0.12746519
6.9415469 -3.4960396 0.47151369 -0.01576215 0.013769329 -0.11830495 0.12014201
6.9591274 -3.4780564 0.47150451 -0.013248444 0.018116027 -0.12230682 0.12434898
6.9937024 -3.4680715 0.47249684 -0.023421228 0.0061153769 -0.13766052 0.13977256
7.0072856 -3.4480891 0.47248727 -0.82878256 0.52091461 0.15814362 0.99158555
7.0320802 -3.4470952 0.47348437 -0.81824219 0.53552485 0.15918653 0.99078125
7.0566592 -3.4321113 0.47447574 -0.80319476 0.55938542 0.15965533 0.99172765
7.0542412 -3.4041317 0.47346455 -0.79010212 0.57840008 0.1587498 0.99197251
7.0628171 -3.3811502 0.4734543 -0.76299304 0.61329442 0.16333915 0.9924556
7.0933862 -3.3681664 0.47444591 -0.7506026 0.62555504 0.16967362 0.99172199
7.1029716 -3.3461845 0.47443599 -0.72354239 0.66217208 0.14448385 0.99139351
7.1337605 -3.3471901 0.47543338 -0.70125496 0.6883589 0.13830832 0.99233347
7.1873403 -3.3452029 0.47642735 -0.66919136 0.71835828 0.13487759 0.99098319
7.2789164 -3.3602104 0.47942469 0.15770754 0.12000436 -0.038467031 0.2018723
7.2794967 -3.3332303 0.47941366 0.13930747 0.093022287 -0.027875684 0.16981393
7.3480778 -3.3372412 0.48140886 0.098048523 0.05204615 -0.055247746 0.12399447
7.0399985 -3.8388183 0.42864153 -0.040650338 0.21465276 -0.072941504 0.23032308
7.0955787 -3.8408294 0.43063641 -0.04462254 0.27205247 -0.048557233 0.27993128
7.0161428 -3.768862 0.42761615 0.013237149 0.18605286 -0.087087564 0.20585221
7.0077281 -3.7368827 0.42660424 0.028241605 0.16883475 -0.092740521 0.19468836
7.0155139 -3.7268915 0.42659941 0.02373448 0.13466306 -0.10464448 0.17218575
6.9560795 -3.6669209 0.42458159 0.025461495 0.10149886 -0.096131966 0.14209737
6.8876472 -3.6029513 0.42256299 0.021416247 0.090326197 -0.087910481 0.12785041
6.9042339 -3.5849683 0.4225539 0.02366221 0.081280529 -0.089297198 0.12304639
6.9078164 -3.5599871 0.42254335 0.025606841 0.07703042 -0.078750409 0.11309741
6.9113832 -3.5340068 0.42153236 0.020872921 0.064249307 -0.092259608 0.11434811
7.0520277 -3.3891437 0.42345864 -0.79373163 0.59476972 0.069292352 0.99426472
7.0726228 -3.3731599 0.42445004 -0.78475994 0.6061275 0.069888979 0.99404383
7.1062016 -3.362175 0.42444223 -0.75708711 0.64039737 0.050866127 0.99291342
7.1257768 -3.3441923 0.42443293 -0.72360718 0.67736137 0.049858365 0.99242717
7.1453528 -3.3262098 0.42542365 -0.68538392 0.71701992 0.039249063 0.99267775
7.2469473 -3.3472152 0.42842245 -0.59648454 0.77920341 0.054019019 0.98278672
7.2337322 -3.3272271 0.42741558 -0.5977937 0.77853715 0.054051548 0.98305595
7.2843127 -3.3232403 0.42840913 0.13889197 0.087450534 0.0096785463 0.16441487
7.0311904 -3.7798591 0.39061895 0.022384048 0.2035231 -0.067998208 0.21574627
6.8499808 -3.6688967 0.38559386 0.014706016 0.11776862 -0.081019647 0.14370072
6.9135661 -3.6759062 0.38658977 0.028911263 0.12081642 -0.061035506 0.13841172
6.9491539 -3.6679199 0.38758275 0.0340828 0.10467939 -0.060097925 0.12542397
6.92872 -3.6289432 0.38656914 0.032101184 0.089139387 -0.057312012 0.11072932
7.0616765 -3.3711603 0.38645029 -0.061400056 -0.077913672 -0.023612622 0.10197089
7.1072593 -3.3661735 0.38744375 -0.76526582 0.63405842 0.0057506468 0.99382842
7.1718321 -3.3691847 0.38943866 -0.73981071 0.66138726 0.0026656277 0.99235082
7.1944203 -3.3532012 0.38942996 -0.69974697 0.70002007 0.012792979 0.98986745
7.2142005 -3.3482091 0.38942599 -0.65075707 0.74217761 -0.0043540318 0.98708224
7.2497759 -3.3372242 0.39041811 -0.60966754 0.77321863 0.0088714473 0.98470312
6.8318882 -3.6529059 0.32658932 0.023579955 0.12009394 -0.043706354 0.12995698
6.8994713 -3.6619151 0.32758564 0.028259337 0.097977445 -0.032008525 0.10687711
7.1369677 -3.3611856 0.32843879 -0.74622858 0.64884675 -0.082686946 0.99231869
7.0072427 -3.7698646 0.28861752 0.029368877 0.1883274 -0.02319105 0.19200929
6.9300222 -3.7138865 0.28760335 0.026845217 0.12501222 -0.023681771 0.13003671
6.9266067 -3.6849065 0.28759202 0.032924265 0.11449616 -0.01721609 0.12037347
6.9391828 -3.6639242 0.28758219 0.031996787 0.097829685 -0.014490068 0.10394423
7.1278658 -3.350193 0.2874352 -0.066824019 -0.075353652 -0.0167813 0.10210404
6.8199654 -3.6509082 0.23258984 0.019881576 0.099373817 -0.0018513091 0.10136005
7.0088754 -3.7458851 0.19560774 0.032487839 0.14977771 0.0091521442 0.15353365
6.9576683 -3.7049026 0.19559674 0.031018078 0.11973855 0.0065221153 0.12386274
7.1339378 -3.357192 0.19543745 -0.074041992 -0.077685922 0.014792144 0.1083334
7.1915183 -3.357204 0.19543186 -0.68716741 0.69769061 -0.14988863 0.99067545
7.2900896 -3.375211 0.19542973 -0.59906721 0.76106745 -0.1582188 0.98139614
7.0180626 -3.7628772 0.14561355 0.030253112 0.15867522 0.0075224563 0.16170858
6.956635 -3.7019062 0.14559564 0.026846319 0.10149096 0.011799432 0.10564263
7.1636782 -3.3542023 0.14543332 -0.076484174 -0.07535845 0.010732591 0.10790696
7.0251007 -3.7688763 0.09661521 0.024891198 0.11341092 -0.0045916289 0.11620108
