# .PCD v0.7 - Point Cloud Data file format
VERSION 0.7
FIELDS x y z normal_x normal_y normal_z curvature
SIZE 4 4 4 4 4 4 4
TYPE F F F F F F F
COUNT 1 1 1 1 1 1 1
WIDTH 333
HEIGHT 1
VIEWPOINT 0 0 0 1 0 0 0
POINTS 333
DATA ascii
0.65713513 -9.3135004 0.52878654 0.10283287 0.019368976 0.040496953 0.1122041
0.68472058 -9.3045006 0.52778566 0.10840264 0.023814976 0.030130312 0.11500487
0.71329451 -9.2985001 0.52778512 0.10246353 0.026097268 0.010861501 0.10629117
0.84437561 -9.2984982 0.52878582 -0.049773201 -0.042749614 -0.080332473 0.10372178
0.87296677 -9.3044977 0.52878666 -0.06656538 -0.050304919 -0.083546035 0.11807402
0.90154314 -9.300498 0.52878618 -0.081364796 -0.056342185 -0.10317041 0.14296435
0.9301036 -9.2864981 0.52778429 -0.066509828 -0.055951178 -0.22876878 0.2447228
0.9566735 -9.2614985 0.52778095 -0.10678294 0.0091580153 -0.17544922 0.205594
0.96515167 -9.0285091 0.51974958 -0.16054679 -0.02018252 -0.13694111 0.21197988
0.97894275 -9.0275097 0.51974934 -0.17419228 -0.0062280297 -0.14666113 0.22779645
1.0065233 -9.0245094 0.51974869 -0.19864571 0.0063949823 -0.14501743 0.24603063
1.0351017 -9.0285101 0.51974899 -0.14144535 0.0010623634 -0.056253046 0.15222459
1.1483961 -9.0245123 0.51974702 0.12521477 0.0050176382 -0.041565984 0.13202897
1.1621917 -9.0255117 0.51974696 0.14232329 0.015423924 -0.078207016 0.16312619
1.1897688 -9.0205135 0.51974583 0.15346497 0.014541894 -0.11384346 0.19163324
1.2193393 -9.0265141 0.52074623 0.13684377 -0.0058887899 -0.097026885 0.16785444
1.3381748 -9.2925005 0.52978212 0.084080487 -0.03921783 -0.052670971 0.1066855
1.4988604 -9.2955036 0.53077984 -0.082145214 0.013816565 0.069554903 0.10852013
1.5274336 -9.2895041 0.53077841 -0.074515566 0.0085533559 0.071600728 0.10369375
0.61168206 -9.193511 0.46577099 0.12150101 0.026866794 0.028029239 0.12755375
0.64429653 -9.2765093 0.46778175 0.12259336 0.025266081 0.044761356 0.13293263
0.67285717 -9.2605085 0.46777996 0.10623571 0.026438057 0.012208352 0.11015463
0.68765074 -9.2695084 0.46778125 0.10890196 0.028318554 0.0060008392 0.11268358
0.86010927 -9.2635059 0.46778125 -0.063454553 -0.043232501 -0.096242324 0.1231183
0.87490904 -9.2745056 0.46778271 -0.076787531 -0.050165892 -0.10324387 0.13810228
0.9034763 -9.2655058 0.46778154 -0.071652129 -0.042210251 -0.13704972 0.16030708
0.9320541 -9.2635059 0.46778125 -0.070585623 -0.037170678 -0.18451354 0.20102048
0.96707052 -8.9895172 0.46074435 -0.12885463 -0.057339281 -0.064078346 0.15491076
0.99463665 -8.9795179 0.46074274 -0.18144937 -0.054936469 -0.13645843 0.2335868
1.0084304 -8.9805183 0.46074274 -0.21991566 -0.049841136 -0.16532806 0.27960759
1.0360124 -8.9795189 0.46074229 -0.20383067 -0.02327469 -0.11966424 0.23750408
1.0645874 -8.9825191 0.46074235 -0.12995091 0.0043877661 -0.059045628 0.14280364
1.1207519 -8.9875202 0.46074229 0.10822964 -0.017261833 -0.010523885 0.11010167
1.1473215 -8.9725218 0.46073979 0.17999856 -0.0044227839 -0.12625591 0.21990816
1.1768996 -8.9835215 0.46074086 0.14982566 -0.022187024 -0.092325822 0.1773811
1.1906756 -8.975523 0.46073952 0.15400359 -0.030431569 -0.11135643 0.19246672
1.2769682 -9.2415094 0.4677757 0.080455527 -0.025792658 -0.10579957 0.13539535
1.3085563 -9.2635088 0.4687784 0.078893259 -0.032088846 -0.067864731 0.10890116
1.3361309 -9.2525091 0.46877643 0.072267786 -0.034266949 -0.072637804 0.10804216
0.61962932 -9.2395153 0.42277685 0.11180817 0.02663511 0.05675409 0.12818551
0.65324384 -9.3325119 0.42478895 0.10393209 0.021173239 0.06002789 0.12187507
0.66802907 -9.3335123 0.42478922 0.11034319 0.024239898 0.066141486 0.13091175
0.69660306 -9.3265114 0.42478859 0.12937981 0.029830337 0.065906219 0.14823163
0.72618651 -9.3385105 0.42479038 0.1223585 0.031219065 0.057952158 0.1389413
0.94199896 -9.3115082 0.42478767 -0.065745488 -0.035644293 -0.078203589 0.10820714
0.95951241 -9.1735144 0.42176917 -0.11038837 -0.051274717 0.0082915798 0.1219977
0.97503608 -9.0315199 0.41874996 -0.15073621 -0.065837175 -0.077334158 0.18175949
0.98981953 -9.0345201 0.41875026 -0.14371237 -0.053664982 -0.062219679 0.16554295
1.0173949 -9.0285206 0.41874918 -0.11456984 -0.053673774 0.011093155 0.12700465
1.0459718 -9.0315208 0.4187493 -0.048340328 -0.077039123 0.097286224 0.13317816
1.0735488 -9.0265217 0.41874829 -0.019858271 -0.085493356 0.11350815 0.14348368
1.102138 -9.0355215 0.41874918 0.0072451653 -0.093650758 0.12285472 0.15464877
1.1297053 -9.0255222 0.41874745 0.071095079 -0.066788286 0.081008971 0.12679763
1.1592852 -9.0365229 0.41874856 0.10592359 -0.053783298 0.044413567 0.12682672
1.1740845 -9.0465231 0.41974977 0.1093142 -0.051709414 0.033007115 0.12535121
1.2006397 -9.0235243 0.41874611 0.13588539 -0.041598916 -0.050064422 0.15067102
1.2342416 -9.0715227 0.41975233 0.12523367 -0.04102093 -0.050223671 0.14102696
1.4791501 -9.2865152 0.4257789 -0.076265462 0.01926446 0.077445425 0.1103872
1.5097338 -9.2965155 0.42577976 -0.077230036 0.012801409 0.078696974 0.11100256
0.63350374 -9.2905216 0.35278344 0.11173294 0.024219811 0.046580639 0.12345285
0.6610868 -9.2805214 0.35278243 0.13993293 0.032117844 0.04403127 0.15017168
0.69065136 -9.279521 0.35278255 0.12464471 0.033908874 0.037987545 0.13464461
0.70343173 -9.2545214 0.35277945 0.098068669 0.032325178 0.021301817 0.10543314
0.89169788 -9.2765179 0.35278302 -0.081764922 -0.043563008 -0.047364503 0.10405111
0.92025697 -9.2625189 0.35278115 -0.10079727 -0.048483104 -0.035552032 0.11736544
0.94782621 -9.2465191 0.35277897 -0.10995728 -0.048046798 -0.022102941 0.12201491
0.9542613 -8.9705305 0.34874192 -0.091963604 -0.063634366 -0.0014615022 0.11184262
0.980838 -8.9585314 0.34874004 -0.091805488 -0.059069157 -0.019112617 0.11082736
1.0084188 -8.957531 0.34873962 -0.14159516 -0.071106821 -0.0731811 0.17453034
1.0379941 -8.9695311 0.34874091 -0.18283595 -0.061125934 -0.10982651 0.22187211
1.0497819 -8.9515324 0.34873831 -0.16469324 -0.040541232 -0.1102924 0.20231625
1.0793543 -8.9615326 0.3487393 -0.093058132 0.010427296 -0.10100117 0.13773084
1.107933 -8.9665327 0.34873959 0.1539216 -0.0034226477 -0.089721017 0.17819494
1.1345098 -8.955534 0.34873766 0.16465893 -0.033817559 -0.11931126 0.20613435
1.1610777 -8.9405355 0.34873512 0.13211915 -0.043959826 -0.11141024 0.17832604
1.1926756 -8.9755354 0.3487395 0.13057375 -0.056402624 -0.071010061 0.15897544
1.2192392 -8.9585361 0.34873664 0.088854015 -0.048554003 -0.01994697 0.10320082
1.5401511 -9.2325287 0.35376972 -0.082405157 0.012887955 0.068370901 0.10784846
0.65030122 -9.3165264 0.30578688 0.11057522 0.021317571 0.018852986 0.11417861
0.66508847 -9.3195257 0.30578741 0.12195745 0.025236309 0.02524123 0.12707326
0.69366664 -9.3165255 0.3057873 0.1395908 0.032804668 0.02801678 0.14610502
0.72224861 -9.3165245 0.30578753 0.12922935 0.035183638 0.031001061 0.13747428
0.75081742 -9.3065243 0.30578643 0.098976292 0.034243822 0.025443137 0.10777894
0.93805325 -9.2895222 0.3057847 -0.087398648 -0.039527476 -0.037787855 0.1030964
0.94553328 -9.0445318 0.30275193 -0.11366078 -0.069648832 -0.015241915 0.13417171
0.97310215 -9.0345335 0.30275038 -0.14071231 -0.083756059 -0.030050999 0.16648751
1.0016716 -9.0335331 0.30275002 -0.16941994 -0.086570293 -0.050738022 0.19690578
1.016466 -9.0425329 0.30275109 -0.17206363 -0.078893751 -0.053543348 0.19671555
1.0430435 -9.0295343 0.30274907 -0.18185106 -0.069390833 -0.045279723 0.1998378
1.0716207 -9.0325336 0.30274916 -0.11947407 -0.022240639 -0.023609675 0.12379869
1.1287669 -9.033535 0.30274859 0.14028069 -0.031080067 -0.013564065 0.14432126
1.1573454 -9.0365362 0.30274859 0.15530702 -0.048368603 -0.035544906 0.16650295
1.1711434 -9.0385361 0.30274868 0.1581694 -0.057134181 -0.034461901 0.17166682
1.1987083 -9.0275373 0.30274671 0.13926573 -0.060603112 -0.045919359 0.15867031
1.4782196 -9.2965279 0.30578038 -0.096944131 0.018647879 0.04398147 0.10807533
0.5960083 -9.2205372 0.23977423 0.11068384 0.022678912 0.00144976 0.11299269
0.62558579 -9.2335358 0.23977616 0.12849732 0.028190434 0.0091025457 0.13186781
0.6531688 -9.2255363 0.23977539 0.12601192 0.034253478 0.016823411 0.13166371
0.88177615 -9.2135334 0.23977469 -0.088619784 -0.048445672 0.0052022226 0.10113116
0.9103514 -9.2115335 0.23977439 -0.10406369 -0.05567959 -0.0033540465 0.11807082
0.99850363 -8.9055452 0.23873267 0.071524143 0.04120788 -0.059379451 0.10168438
1.0280745 -8.9165459 0.2387338 0.06812191 0.033427745 -0.073126793 0.10538282
1.0684458 -8.9085474 0.23873214 0.075298831 0.018521816 -0.10346282 0.12929627
1.09701 -8.907547 0.23873158 0.026102211 0.0033029914 -0.10098658 0.10435767
1.2334459 -9.1385393 0.2397618 0.11556469 -0.046673298 -0.0079736449 0.12488864
1.2522421 -9.1725368 0.23976631 0.10822247 -0.045069724 -0.024302253 0.11972462
1.2828236 -9.1865368 0.23976785 0.10817964 -0.047759444 -0.010031434 0.11867784
1.3104078 -9.1815376 0.23976672 0.092419878 -0.042931139 -0.0046153404 0.10200891
0.67697835 -9.3465376 0.19579098 0.11132307 0.018333137 -0.015363438 0.1138638
0.69176883 -9.3515368 0.19579177 0.11285836 0.018727034 -0.015413482 0.11543521
0.72034454 -9.3455362 0.19579124 0.12406456 0.024851412 -0.010266822 0.12694494
0.74992794 -9.356535 0.1957929 0.12861276 0.027713895 -0.0090608597 0.13187645
0.77850097 -9.3485346 0.19579205 0.10028874 0.028636962 0.0019809566 0.10431601
0.95467961 -9.1935377 0.19577187 -0.11889187 -0.05917725 -0.018677276 0.13411213
0.9731949 -9.0715437 0.19575539 -0.12712605 -0.075332433 -0.02899209 0.15058735
1.0007735 -9.0665436 0.1957545 -0.1474798 -0.077423573 -0.021860283 0.16799575
1.0293428 -9.0645437 0.19575398 -0.15910921 -0.072590977 -0.041245002 0.179684
1.0441366 -9.0725441 0.19575493 -0.16130564 -0.060867399 -0.052151009 0.18012239
1.071721 -9.0705442 0.19575438 -0.13843109 -0.032395631 -0.050262045 0.15079428
1.1288685 -9.0705442 0.19575372 0.13900653 -0.030540407 -0.049408168 0.15065423
1.1564472 -9.0655451 0.19575267 0.14941746 -0.051474392 -0.04312972 0.16381502
1.1850276 -9.0685463 0.19575268 0.13735491 -0.057159632 -0.049523883 0.1567999
1.1998034 -9.0665464 0.19575217 0.12063082 -0.055378586 -0.040520348 0.13878213
1.2293953 -9.0815468 0.19575383 0.10988107 -0.05380407 -0.036188204 0.1275865
1.4507389 -9.335536 0.19578655 -0.10227333 0.013783574 -0.0083817877 0.1035378
0.65429282 -9.3185453 0.1357872 0.099937901 0.01722616 -0.023845788 0.10417747
0.68386137 -9.3195448 0.13578761 0.11911818 0.022161543 -0.017938424 0.12248291
0.71243823 -9.3155441 0.13578734 0.10841376 0.025484771 -0.015712483 0.11247177
0.94104439 -9.2825413 0.13678381 -0.099040464 -0.044011295 0.018222792 0.10990031
0.94747335 -9.0005522 0.13874604 0.60884285 -0.78648704 0.021378024 0.99484098
1.0026221 -8.9895535 0.13874404 -0.094162077 -0.066338658 -0.035812899 0.12062287
1.0311952 -8.9915533 0.13874401 -0.11610045 -0.068849891 -0.032902278 0.13893229
1.058774 -8.988554 0.13874328 -0.12770364 -0.049663484 -0.049798734 0.14578955
1.1021329 -8.9945545 0.13874355 0.13929109 -0.022675514 -0.037547149 0.14603417
1.1297082 -8.9895554 0.13874248 0.10891514 -0.038445562 -0.035683591 0.12088791
1.1572874 -8.9865561 0.13874164 0.095761627 -0.048676848 -0.026347632 0.11060707
1.1858642 -8.9895573 0.1387416 0.085632935 -0.047343314 -0.024771353 0.10093567
0.63060349 -9.2735538 0.078781269 0.098643348 0.019548267 -0.015515698 0.10175157
0.65918547 -9.2755527 0.078781791 0.10425201 0.022214651 -0.015129083 0.10766086
0.8908006 -9.2855482 0.078784212 -0.091407284 -0.047359049 0.0085398629 0.10330102
0.9348771 -9.1175537 0.080761798 -0.094689161 -0.061021656 -0.027688086 0.11600133
0.9554022 -9.019558 0.082748525 0.59773624 -0.79284024 0.034001134 0.99349904
0.98298019 -9.0155582 0.082747757 -0.098307058 -0.072756022 -0.0045465594 0.12238622
1.0095567 -9.0025587 0.082745746 -0.1245497 -0.087411404 0.0040875617 0.15221725
1.0371284 -8.9955597 0.082744494 -0.15215972 -0.091189474 0.01081248 0.17772172
1.0529228 -9.0125589 0.08274664 -0.1930348 -0.09809202 0.02128049 0.21757145
1.1080728 -9.0015612 0.082744442 0.11925568 -0.024713993 0.02417299 0.12416534
1.137655 -9.0145607 0.081745833 0.1681263 -0.067743808 0.011284353 0.18161225
1.1642293 -9.0015621 0.082743622 0.11387683 -0.059889346 0.0085552707 0.12894906
1.1918007 -8.9945631 0.082742199 0.098859727 -0.059043527 -0.0020742733 0.11516808
0.66811377 -9.3095589 0.013786197 0.10303661 0.021814704 -0.0048640743 0.10543285
0.88794905 -9.3425541 0.012791733 -0.092315048 -0.044622809 -0.023628611 0.10522155
0.94377887 -9.1275606 0.016763095 -0.11251356 -0.069460243 0.0046207132 0.13230789
0.96330082 -9.0195646 0.018748462 0.59859961 -0.78990644 0.045284964 0.99213129
0.99187636 -9.0225649 0.018748624 0.57560259 -0.8033483 0.042359531 0.98918205
1.0184549 -9.0105658 0.018746741 0.55668664 -0.81236422 0.031696286 0.98531228
1.0480307 -9.0215654 0.018747929 -0.21097791 -0.11451393 0.019214563 0.24082009
1.0756072 -9.0165663 0.018746926 -0.24447764 -0.08948192 0.0042959135 0.26037431
1.1041861 -9.0205669 0.018747119 0.16978067 -0.04061681 0.010925075 0.174913
1.1179752 -9.0185661 0.018746659 0.22847334 -0.087370574 -0.0012182277 0.24461228
1.1465408 -9.0155678 0.018745843 0.17209606 -0.081091315 0.016213439 0.19093384
1.1741294 -9.0165682 0.01874557 0.1481148 -0.081267506 0.003121715 0.1689738
1.2026994 -9.0155687 0.018744972 0.11297247 -0.068445444 -0.0023784097 0.13211061
1.2322851 -9.0285683 0.017746309 0.099066451 -0.061672896 -0.013479583 0.11747088
0.9399333 -9.1775646 -0.032230198 -0.10917875 -0.059766173 0.014298012 0.12528539
0.94368273 -9.0625687 -0.029245613 -0.096299767 -0.068028957 0.0032255892 0.11794909
0.97425634 -9.0805674 -0.029243395 -0.12974519 -0.082224965 0.014307862 0.15427078
1.0008395 -9.0695686 -0.029245082 -0.15985398 -0.097969055 0.019329481 0.18848039
1.0304174 -9.0805683 -0.029243842 -0.1800447 -0.089302599 0.0086239092 0.20116019
1.0569832 -9.0605698 -0.029246828 -0.20305857 -0.087727815 0.0086254552 0.221367
1.0865624 -9.0715694 -0.029245635 -0.17164011 -0.039766848 -0.0073009655 0.17633784
1.1151381 -9.0725698 -0.029245829 0.15256582 -0.035708517 -0.019905223 0.15794824
1.1289343 -9.0735693 -0.029245861 0.17779483 -0.055428505 0.0067988355 0.18635866
1.1565009 -9.0625706 -0.02924775 0.17366523 -0.075136095 0.0090686232 0.1894394
1.1860914 -9.07757 -0.030246073 0.14503348 -0.068072557 0.0076744594 0.16039789
1.2146555 -9.0725718 -0.029247198 0.12970068 -0.066728771 0.01206236 0.14635742
0.90073323 -9.3055668 -0.090213127 -0.097265631 -0.049645245 0.0041467282 0.10928151
0.92830932 -9.2925663 -0.090214841 -0.101969 -0.048817009 0.0093728434 0.11343998
0.94379318 -9.1195726 -0.085237972 -0.12054023 -0.074822307 0.020104716 0.14329174
0.96533287 -9.0395746 -0.082248859 -0.11055706 -0.077813923 0.015837291 0.13612013
0.9781127 -9.0235758 -0.082251117 0.58983058 -0.7920022 0.057385616 0.98917168
1.00769 -9.0355759 -0.082249753 0.54364955 -0.81433529 0.071296327 0.98172295
1.0342668 -9.0225773 -0.082251787 0.5217433 -0.82002044 0.071129911 0.97453016
1.0648383 -9.0385761 -0.082249925 -0.23826298 -0.10243937 0.038663514 0.26221734
1.0904181 -9.019578 -0.082252845 0.22640681 -0.042283058 0.033105195 0.23268832
1.1199923 -9.0285778 -0.082251981 0.24355811 -0.095579326 0.03487882 0.26395547
1.147565 -9.0215778 -0.082253337 0.19278288 -0.094520539 0.034265961 0.21742477
1.1633596 -9.0365782 -0.083251469 0.17281836 -0.084512264 0.029637724 0.19464558
1.1889327 -9.0155802 -0.082254805 0.1381765 -0.080366701 0.032792926 0.16317759
1.2265558 -9.1015759 -0.0852433 0.12458357 -0.057599783 0.023737006 0.13929194
0.72741199 -9.4015741 -0.15520149 0.10861079 0.019623786 0.0087562632 0.11071617
0.75698054 -9.3995743 -0.15520149 0.11877258 0.025297463 0.0016305821 0.12144771
0.78555661 -9.3925734 -0.15520218 0.099332154 0.025737494 -0.0072846795 0.10287061
0.91262144 -9.3335724 -0.15320942 -0.096709445 -0.04590866 0.013608417 0.10791437
0.94018543 -9.3125734 -0.15221219 -0.10036513 -0.044384032 0.024082895 0.11235252
0.95168191 -9.1135798 -0.14523882 -0.12166138 -0.069754094 0.043888673 0.14694673
0.97624207 -9.0715809 -0.14324462 -0.1367961 -0.080085188 0.055866297 0.16807099
0.99003047 -9.0685806 -0.14324513 -0.14151402 -0.079685539 0.056268178 0.17187819
1.0176052 -9.0615816 -0.14324631 -0.16653724 -0.081815571 0.06707073 0.19729906
1.046176 -9.0605822 -0.14324671 -0.19611658 -0.080128223 0.087222867 0.22910713
1.075753 -9.0705814 -0.14424565 -0.079917192 -0.0074276626 0.082249559 0.11492135
1.1023306 -9.0575829 -0.14324774 0.057251532 0.0037509203 0.088834547 0.10575152
1.1329042 -9.0725832 -0.14424604 0.14934888 -0.036629438 0.074578956 0.1709059
1.1594812 -9.0595837 -0.1432482 0.1641717 -0.062530875 0.053805672 0.18373215
1.1742772 -9.067584 -0.14424729 0.14894906 -0.059760243 0.051476691 0.16854364
1.2028537 -9.0685835 -0.14424758 0.13728543 -0.061765343 0.053956084 0.15991718
1.2364514 -9.1135817 -0.14624175 0.11252186 -0.049245358 0.0404974 0.12933025
1.4527783 -9.3255739 -0.15521492 -0.10554651 0.018939167 -0.0055663465 0.10737664
0.64944452 -9.3055849 -0.20721447 0.11400172 0.023317844 -0.0066374606 0.11655115
0.67701906 -9.2885847 -0.20621638 0.11708001 0.029165208 -0.011164012 0.12117332
0.6928063 -9.3035841 -0.20721434 0.11307949 0.028441429 -0.013942473 0.11743201
0.72137845 -9.2965841 -0.20721501 0.095568351 0.028826207 -0.013045074 0.10066993
0.88105035 -9.3035803 -0.2082134 -0.10329518 -0.053472728 0.021884467 0.11835606
0.90863097 -9.2935801 -0.2072147 -0.10708739 -0.052050918 0.035368443 0.12420923
0.93719357 -9.28158 -0.20721631 -0.11209795 -0.050572664 0.032862458 0.12729292
0.94564605 -9.0315886 -0.19624978 -0.089025199 -0.060342669 0.04323452 0.11591353
0.97220773 -9.0095892 -0.19525295 -0.09603858 -0.063877404 0.049200382 0.12539701
0.99977446 -8.999589 -0.19525456 0.55630583 -0.80702561 0.12310208 0.98788697
1.014577 -9.0135899 -0.19525281 -0.15205079 -0.084029585 0.0652235 0.18556541
1.042151 -9.0075903 -0.19525391 -0.18483102 -0.078356504 0.071545519 0.21312205
1.0707194 -9.0065899 -0.19525439 -0.18516591 -0.046970546 0.05707854 0.19937554
1.1278887 -9.0205908 -0.1962532 0.16089143 -0.043398201 0.06632787 0.17935675
1.1534495 -8.9935923 -0.19525732 0.12042484 -0.04628709 0.064067669 0.14404619
1.1840304 -9.0125923 -0.19625513 0.12972122 -0.05950132 0.064626873 0.15666728
1.1988195 -9.0175924 -0.19625467 0.1239278 -0.060464114 0.062060252 0.15121338
1.2861183 -9.2885799 -0.20921774 0.097176611 -0.036273003 0.02818574 0.10748702
1.3147011 -9.2875805 -0.20921826 0.092408046 -0.038080305 0.026734157 0.10346048
0.62481147 -9.2975922 -0.26021576 0.10717292 0.02216804 -0.017194942 0.11078413
0.65338844 -9.294591 -0.26021585 0.1149137 0.02540493 -0.026242141 0.12057868
0.66718465 -9.2935905 -0.26021582 0.11294773 0.027646154 -0.023490211 0.1186309
0.69576019 -9.2895899 -0.26021609 0.10637788 0.029894948 -0.021130491 0.11250093
0.8849979 -9.2975864 -0.2612142 -0.10276189 -0.052453905 0.018606406 0.11686581
0.91258168 -9.2895851 -0.26121521 -0.11098094 -0.053298563 0.015627375 0.12410367
0.94115692 -9.2855854 -0.26121578 -0.11737831 -0.051071197 0.018971497 0.12940577
0.9526332 -9.0765924 -0.25024378 -0.1235279 -0.072013736 0.041660346 0.14893188
0.97217441 -8.9825964 -0.24625659 0.58905864 -0.79058802 0.13035576 0.99449086
0.98695821 -8.9865961 -0.24625619 0.57004738 -0.79844952 0.14376755 0.99153656
1.0155379 -8.9925957 -0.24625567 0.51449037 -0.81869221 0.18251067 0.98400575
1.0431201 -8.9915962 -0.24625611 0.44399858 -0.8418501 0.2257418 0.97816443
1.071684 -8.9885969 -0.24625686 -0.18805638 -0.041414171 0.086224839 0.21098591
1.1002734 -8.9985971 -0.24725585 -0.083754137 0.015726089 0.06378343 0.10644431
1.1268474 -8.9855976 -0.24725802 0.10321489 -0.0041522086 0.088425674 0.13597666
1.1554277 -8.9905977 -0.24725775 0.1110698 -0.031245112 0.074589655 0.13739131
1.1692079 -8.9845991 -0.24725881 0.096350491 -0.033806205 0.064897217 0.12098729
1.1977847 -8.9875994 -0.24725886 0.086199626 -0.038531512 0.053342216 0.10844558
1.2323881 -9.0435972 -0.25025156 0.11472276 -0.054277241 0.062050723 0.14127146
1.2880608 -9.2685862 -0.26222059 0.0975696 -0.036495 0.042884983 0.1126536
1.3166384 -9.2655878 -0.26222143 0.097432822 -0.040345043 0.030356549 0.10973786
1.3452092 -9.2595882 -0.26222268 0.09047778 -0.039957404 0.023057926 0.10156028
0.60409832 -9.2676001 -0.31821975 0.10741676 0.021540374 -0.0011724001 0.1095615
0.63267618 -9.2665987 -0.31821957 0.11143707 0.025796473 0.0016926769 0.11439644
0.66125768 -9.2685976 -0.31821907 0.10373855 0.0265131 0.0051228474 0.1071955
0.87707424 -9.2615938 -0.31921896 -0.08775726 -0.045713931 0.038094226 0.10602957
0.89086664 -9.2585945 -0.31821933 -0.10589197 -0.054273397 0.049523339 0.12888473
0.92042917 -9.2565928 -0.3182196 -0.11625671 -0.05454272 0.047969636 0.13708252
0.94901311 -9.2585936 -0.31921941 -0.12152247 -0.051900536 0.025925457 0.13466071
0.9554463 -8.984602 -0.30325618 -0.076211512 -0.049992889 0.046928674 0.10251723
0.98302603 -8.9826031 -0.30325669 -0.084397912 -0.050875694 0.065344125 0.11824211
1.0115908 -8.9806032 -0.30325726 -0.12898059 -0.057536215 0.10973674 0.17885347
1.0381615 -8.9656038 -0.30325961 -0.14608085 -0.04281956 0.13823532 0.2056262
1.0539668 -8.9886026 -0.30425665 -0.21215788 -0.040292054 0.14914405 0.26244688
1.0805407 -8.9756041 -0.30325878 -0.16626501 0.017468899 0.15022038 0.22475626
1.1091119 -8.9766045 -0.30425903 0.094021805 0.03704688 0.14503644 0.17677143
1.1366901 -8.9736042 -0.30425984 0.11608598 0.0026625097 0.13840599 0.18066339
1.1652617 -8.9746056 -0.30426016 0.11088242 -0.020057172 0.10711277 0.15546815
1.1928401 -8.9716063 -0.30426103 0.075481713 -0.028426677 0.059809342 0.10041276
1.2234303 -8.994606 -0.3052583 0.080833703 -0.037806749 0.054983743 0.10481722
1.2643311 -9.2265949 -0.31922624 0.10374215 -0.035339624 0.037960842 0.11598426
1.2979414 -9.2725935 -0.32122013 0.09717989 -0.036371708 0.035728201 0.10974213
1.3244947 -9.245595 -0.32022437 0.099574417 -0.041320205 0.062731743 0.12473049
1.3550769 -9.2575951 -0.32122311 0.083525941 -0.037204713 0.041660219 0.10048058
0.65545064 -9.345603 -0.37320936 0.10117875 0.019821674 0.003053606 0.10314729
0.6850335 -9.3576021 -0.37320751 0.11346185 0.022041529 -0.0034889854 0.11563561
0.71360546 -9.3486004 -0.3732084 0.1045919 0.024771899 0.011015596 0.10804839
0.74317414 -9.3485994 -0.37320817 0.10377913 0.028778404 0.016312346 0.10892382
0.87426722 -9.3505974 -0.37420723 -0.053638563 -0.026775599 0.08759322 0.10614424
0.90284014 -9.3435974 -0.37320811 -0.076448709 -0.03495273 0.063703947 0.10547176
0.94893008 -9.2006006 -0.36522713 -0.11704415 -0.04682979 0.036763981 0.13131623
0.96544623 -9.0626049 -0.35624576 -0.1253764 -0.054567516 0.071466878 0.15428665
0.99403083 -9.0696049 -0.35724503 -0.15642656 -0.046176851 0.10017678 0.19140783
1.007812 -9.0626059 -0.35724607 -0.16435213 -0.034594923 0.11481141 0.20344555
1.0363806 -9.060606 -0.35724661 0.31664917 -0.83236998 0.42321849 0.9860124
1.1644769 -9.0656061 -0.35824743 0.10947413 -0.021698982 0.024813086 0.114329
1.1920593 -9.0626078 -0.35824823 0.12062329 -0.025726706 0.066424787 0.14008602
1.2216272 -9.0666075 -0.35824811 0.11413203 -0.037055016 0.053428106 0.13135356
1.4450086 -9.3505964 -0.37721118 -0.10732468 0.019488633 -0.039327458 0.11595276
1.4705684 -9.3205986 -0.37621593 -0.095308483 0.01705575 -0.033814307 0.10255736
0.64851964 -9.3036118 -0.43521476 0.10497209 0.020797223 -0.04440733 0.11586058
0.67808712 -9.3046103 -0.43521434 0.10545936 0.024763077 -0.0343398 0.11364026
0.70667332 -9.308609 -0.43621358 0.099885382 0.028894693 -0.033646762 0.10928906
0.72045422 -9.2956095 -0.43521515 0.09453664 0.029035598 -0.019852659 0.10086808
0.88012362 -9.3016052 -0.43621367 -0.082922205 -0.038936645 0.064022094 0.11176306
0.90870249 -9.2996054 -0.43621391 -0.089315191 -0.039620817 0.023157537 0.10041556
0.93728453 -9.2996044 -0.43621391 0.393116 -0.85545874 0.31887034 0.99399608
0.94570428 -9.0306129 -0.41824991 0.51831639 -0.80051887 0.26998371 0.99114758
0.97127867 -9.0076141 -0.41625318 0.53439331 -0.78702199 0.27332687 0.98979157
0.99984843 -9.0076141 -0.41725346 0.1750183 0.042420596 -0.14511028 0.23127452
1.0274311 -9.0066137 -0.41725388 0.21672788 0.0078053176 -0.19860861 0.29407018
1.0422143 -9.009614 -0.41725364 0.21556455 -0.0050036907 -0.17784514 0.27950314
1.0707939 -9.0146141 -0.41725329 0.19189829 -0.77472007 0.59288824 0.99424976
1.1259433 -9.0036154 -0.41725552 0.15021849 0.038128257 0.11680019 0.19406608
1.1545246 -9.0086164 -0.41825521 0.19396326 0.016624033 0.16696078 0.25646445
1.1821043 -9.0056162 -0.41825607 0.16860199 -0.0032538772 0.164316 0.23545055
1.2096627 -8.9926176 -0.41725835 0.14269537 -0.024263591 0.14455029 0.20456168
1.2525895 -9.2526064 -0.43522239 0.043519579 -0.10544321 -0.15658778 0.19373167
1.2841899 -9.2806053 -0.43721884 0.082576305 -0.044692636 -0.045226589 0.10421959
1.504009 -9.282608 -0.4392221 -0.09881945 0.013527215 -0.085885957 0.13162319
1.5325837 -9.2776098 -0.43922341 -0.081912935 0.0072531104 -0.083399445 0.11712303
1.5621623 -9.2796106 -0.44022375 -0.065167971 0.00073385239 -0.079913184 0.10311896
0.65651113 -9.3826151 -0.48720464 0.073220022 0.008382231 -0.068453327 0.10058475
0.68508804 -9.3766146 -0.48720509 0.094198689 0.013398796 -0.073845416 0.12044113
0.70087236 -9.3876133 -0.48820356 0.095391065 0.01382044 -0.074231558 0.12165847
0.72944772 -9.3806124 -0.48720416 0.095824093 0.02140972 -0.073000416 0.1223507
0.75901788 -9.3806124 -0.48720393 0.097307973 0.025737852 -0.068187431 0.12157633
0.8891086 -9.367609 -0.48720494 -0.047742784 -0.018322557 0.10550086 0.11724129
0.91868228 -9.3696089 -0.48720461 -0.041075528 0.0017183721 0.14245464 0.14826825
0.94825655 -9.3716078 -0.48820433 -0.033795774 0.050091177 0.20813988 0.21673368
0.95573282 -9.1266155 -0.47023708 0.41222569 -0.77770531 0.45123684 0.98912603
0.982288 -9.0986156 -0.46824101 0.16447988 0.01699838 -0.0920773 0.18926385
1.0108706 -9.1036158 -0.46824053 0.091205381 0.0480012 0.016436666 0.1043681
1.0384485 -9.0976162 -0.46824157 0.077819817 0.063324928 0.039066046 0.10766674
1.0532355 -9.1016159 -0.46824116 0.030535955 0.097839266 0.076744974 0.12804201
1.0808172 -9.0976162 -0.46824199 0.0049114265 0.0983136 0.07811743 0.12566629
1.1093898 -9.0966158 -0.46824244 -0.018751139 -0.60788864 0.78140676 0.99019027
1.1379668 -9.0976171 -0.4692426 -0.078494459 -0.63989651 0.75585699 0.99345297
1.1605175 -9.0426188 -0.46525058 0.11199676 -0.028761804 0.0071530044 0.11585198
1.1780429 -8.9426241 -0.45826486 0.070287436 0.0099918246 0.12173045 0.14092006
1.2078891 -9.0796194 -0.4682461 0.10008447 -0.022681981 0.017930597 0.10417715
1.4184741 -9.3736067 -0.49120742 -0.074873611 0.011207342 -0.11342479 0.13637026
1.4322668 -9.3696079 -0.49120823 -0.090073071 0.0099522471 -0.13214818 0.16023529
1.459828 -9.3516083 -0.49021125 -0.086639494 0.009327352 -0.13408506 0.15991312
1.4863973 -9.3316107 -0.48921463 -0.086105265 0.0088966489 -0.12430126 0.151473
1.5220011 -9.3776083 -0.49320856 -0.036650088 -0.0059141517 -0.093630634 0.1007219
