# .PCD v0.7 - Point Cloud Data file format
VERSION 0.7
FIELDS x y z normal_x normal_y normal_z curvature
SIZE 4 4 4 4 4 4 4
TYPE F F F F F F F
COUNT 1 1 1 1 1 1 1
WIDTH 125
HEIGHT 1
VIEWPOINT 0 0 0 1 0 0 0
POINTS 125
DATA ascii
-8.6467085 12.244786 0.43457559 -0.084210135 -0.65033937 0.72786176 0.9797017
-8.6851225 12.218808 0.43458858 -0.1256844 0.076886326 0.08251363 0.16886851
-8.7183228 12.224828 0.43560374 -0.19280109 0.1167807 0.11227441 0.25182441
-8.7387619 12.171838 0.43460533 -0.13934368 0.084498793 0.084041834 0.18335685
-8.1600447 12.467526 0.35739881 0.057127535 0.65580225 -0.74362707 0.99313712
-8.2298899 12.403563 0.35741949 0.076626495 0.68274659 -0.7135362 0.99052936
-8.3604488 12.475643 0.35948476 -0.11989313 0.010306448 -0.00071677566 0.12033743
-8.3184099 12.240605 0.35643449 -0.0084320558 -0.71344864 0.69551814 0.99640632
-8.367815 12.231632 0.35745427 0.045712207 -0.69449097 0.71057153 0.99464524
-8.5530882 12.425754 0.35956016 0.18402253 0.0081423223 0.017800957 0.18506071
-8.511591 12.27872 0.35852218 -0.031933948 -0.59985292 0.78773212 0.99063879
-8.4130182 12.6357 0.25552905 -0.4558526 -0.11164036 0.2293697 0.52237499
-8.2866192 12.351609 0.25443631 0.061164096 -0.093020171 -0.13731565 0.17677496
-7.1181321 12.289965 0.18594469 0.11045255 0.1588904 0.045152485 0.19870751
-7.932601 12.247411 0.18527275 0.010652422 -0.035538435 -0.10619147 0.11248592
-8.1030312 12.216506 0.18533997 -0.042708386 -0.030302137 -0.095908366 0.10927324
-8.2682362 12.217601 0.18540998 -0.10093741 -0.037809372 -0.099062428 0.14639424
-8.2724628 12.181602 0.18540679 -0.10612386 -0.030019701 -0.06126523 0.12616213
-8.4312191 12.253699 0.18548435 -0.059152145 -0.051459998 -0.10559396 0.1315188
-7.0733719 12.377961 0.095939174 0.14433096 0.3668443 0.099656075 0.40661713
-7.1959181 12.461032 0.095000178 0.14528674 0.19009094 -0.12060928 0.26793543
-7.2813668 12.111053 0.096985221 -0.014139101 0.043138802 0.12753074 0.1353697
-7.8187518 12.444373 0.092252769 0.1003878 0.0061104298 0.089593723 0.13469255
-8.0544062 12.087483 0.094301514 0.054469615 -0.027584344 -0.12400306 0.13821936
-8.139782 12.134536 0.093344063 -0.021509156 -0.023772657 -0.15898532 0.16218543
-8.132246 12.039526 0.094327644 0.032995943 -0.027005732 -0.092711516 0.10204639
-8.2196102 12.09058 0.093371727 -0.011050701 -0.018449128 -0.14076242 0.14239575
-7.0399132 12.423961 0.0079322839 0.19737668 -0.054651439 0.33601472 0.39351013
-7.0590487 12.226956 0.0099120019 0.068366975 0.048998326 0.14874691 0.1708816
-7.0974593 12.205976 0.0099244369 0.047748856 0.049988031 0.17321572 0.1865005
-7.1408796 12.190997 0.0099397749 0.05109106 0.058056056 0.16228302 0.17976813
-7.375071 12.514146 0.0050801802 -0.050107926 -0.11006523 0.012138948 0.12154222
-7.4154863 12.493167 0.0050936844 -0.10018447 -0.14561723 0.0031993538 0.17678106
-7.9909272 12.470487 0.0013281634 -0.065659106 -0.076173425 0.17915775 0.20545317
-7.9284587 12.281439 0.0042757541 -0.02540935 -0.032822847 0.11226251 0.11969062
-7.9698682 12.262461 0.0042904294 -0.086494252 -0.041992247 0.12445112 0.15726629
-8.1201754 12.413557 0.0013745208 -0.087680563 -0.036075801 0.096404985 0.13521563
-8.1887932 12.391596 0.00040041347 -0.47349674 -0.048091561 0.10149451 0.48663446
-7.9944515 12.003458 0.0062645427 -0.019871699 0.0020163059 -0.15109394 0.15240844
-8.0738249 12.043507 0.0053035393 0.037790835 0.0023236573 -0.1662492 0.17050613
-8.1681957 12.103565 0.0043517528 0.16153263 -0.0085524917 -0.10647589 0.19365704
-8.2796783 11.983623 0.005382339 0.028873693 0.0007006824 -0.10663937 0.11048138
-6.5489144 12.236708 -0.082288407 0.17920099 -0.86484993 0.3691442 0.95725954
-6.7170968 12.275796 -0.085216917 -0.15794975 -0.026794076 -0.15809901 0.22508074
-6.7665014 12.274822 -0.085197575 -0.16058095 -0.016835362 -0.2577683 0.30416143
-6.808908 12.261843 -0.085182674 -0.063507624 -0.0070267022 -0.17824125 0.18934765
-6.7951541 12.189831 -0.084198393 -0.06498982 -0.0255422 -0.16779886 0.18174857
-7.2900352 12.398108 -0.092970662 -0.15975142 -0.039593875 -0.14115414 0.21682407
-7.296495 12.317105 -0.090979479 -0.10987381 -0.025947154 -0.022070196 0.11503305
-8.0566387 12.434538 -0.10164929 -0.15775985 -0.062200069 0.06650582 0.1821539
-8.2435131 12.33864 -0.10158378 -0.13189347 -0.071690083 0.1186748 0.19136108
-8.1900291 12.170598 -0.097629696 0.1259193 -0.018229306 0.025218144 0.1297071
-6.6956034 12.346801 -0.15721525 -0.05197268 -0.0032806098 -0.17550844 0.18307139
-6.7290244 12.315816 -0.15720652 -0.10586302 -0.0034167767 -0.2073967 0.23287775
-7.11727 12.287019 -0.16105612 -0.047604844 0.026109338 -0.08857654 0.10389283
-7.2904553 12.321114 -0.16398138 -0.14884371 -0.0016152263 -0.11254019 0.18660748
-7.4307551 12.476201 -0.16990249 -0.10336564 -0.013811469 0.010230467 0.10478491
-7.3343239 12.21813 -0.16197811 -0.086495191 -0.00122118 -0.060031366 0.10529328
-8.0017529 12.532525 -0.17765874 0.0869186 0.097704798 -0.57296348 0.58769739
-8.0631456 12.543561 -0.17863148 0.018295564 -0.60610378 0.12142131 0.61841702
-8.0696001 12.46556 -0.17763956 -0.098619796 0.053875268 -0.32184517 0.34089988
-8.1240025 12.464591 -0.17761683 -0.024375301 -0.045100957 -0.56581753 0.56813532
-8.2323551 12.547659 -0.18155967 -0.11709222 -0.47384173 0.58236682 0.75986034
-8.2607803 12.505673 -0.18055344 -0.16282865 -0.47354972 0.27436903 0.57099986
-8.2124348 12.131621 -0.17162563 0.14514787 -0.010578811 0.020991415 0.14703897
-8.2003613 11.947601 -0.16765639 0.056961149 -0.042765826 0.074998662 0.10343253
-6.7338419 12.16382 -0.23622634 -0.11615957 -0.012589335 -0.087418266 0.14592288
-6.7692547 12.138836 -0.23621595 -0.094873048 -0.0053778589 -0.10031439 0.13817666
-6.8933377 12.323915 -0.24314037 -0.012072604 0.019761205 -0.10846794 0.11091233
-6.9327569 12.302935 -0.24312767 -0.001217097 0.053075433 -0.19390067 0.2010372
-7.1469584 12.60507 -0.25399926 0.040434092 -0.02897349 0.14473695 0.15304627
-7.3063221 12.378139 -0.25096691 -0.11615147 -0.076633513 0.090043128 0.16574566
-7.2917218 12.083111 -0.24201457 -0.070162974 -0.051006615 0.12686872 0.15368861
-7.7573447 12.656408 -0.26474324 0.045343298 0.093246371 -0.055062473 0.11740007
-7.8447094 12.712461 -0.26769927 0.022325516 0.24048516 -0.039007485 0.24464898
-7.7412853 12.448385 -0.25877881 0.1610788 -0.10891166 0.068207353 0.20605916
-7.8795924 12.589474 -0.2657018 0.13268262 -0.30071118 -0.10494259 0.34502876
-7.9104862 12.460482 -0.26270685 0.029550061 0.10896751 -0.62173432 0.63190246
-7.9751053 12.433517 -0.2626836 0.0028168177 0.088152826 -0.66297019 0.66881114
-8.0085354 12.398535 -0.26167449 0.031728599 -0.19000952 0.15122667 0.2449078
-8.0659323 12.403567 -0.26364967 0.060372181 -0.32143015 0.14957762 0.35963258
-8.2472029 12.603686 -0.27154571 -0.1228378 -0.10870419 -0.054915607 0.17297818
-8.2950668 12.504707 -0.26953906 -0.11378294 -0.046113253 -0.027023792 0.12571108
-8.2523422 12.394675 -0.26657233 -0.03338759 -0.47679442 0.033720613 0.47915
-8.2318354 12.274655 -0.26259759 -0.011396103 -0.075919479 0.082460731 0.11266503
-8.3901224 12.434759 -0.2695083 -0.048468035 0.3524465 -0.50669897 0.61912155
-8.3895912 12.346753 -0.26752064 -0.032807544 -0.075250685 0.092735708 0.12385036
-8.4379921 12.336782 -0.26750135 0.010729723 -0.14611542 0.13954005 0.20232713
-6.5756283 12.153752 -0.3232899 0.20864424 -0.019367218 -0.014055811 0.21001208
-6.6919589 12.280821 -0.33022609 0.0013621897 0.0073502362 -0.10545689 0.1057215
-6.8132811 12.415895 -0.33615905 0.10603968 0.030509889 -0.16856408 0.20146741
-6.7238436 12.153829 -0.32623172 -0.037372615 -0.0071748197 -0.15490749 0.1595134
-6.8536129 12.2109 -0.33017224 -0.0063754302 0.030735642 -0.12009621 0.12413068
-7.1024857 12.434048 -0.34204125 0.0041534826 -0.10654506 0.11796704 0.1590136
-7.1518831 12.432075 -0.34302169 0.010278504 -0.11183444 0.10320383 0.15252416
-7.3485885 12.597193 -0.35191894 0.338705 0.35368338 -0.089933217 0.49789658
-7.586947 12.688331 -0.35980898 0.083087184 0.19969565 -0.073366612 0.22839548
-7.473525 12.402248 -0.34789544 -0.018707808 -0.095825925 0.059071541 0.11411414
-7.6612444 12.541362 -0.3557989 0.11155139 -0.24484415 0.046341956 0.27302006
-7.8865371 12.423481 -0.356722 -0.046988934 -0.30417618 0.033097059 0.3095586
-8.1383467 12.432627 -0.36161524 -0.0072635221 0.33879384 -0.76475114 0.83646774
-8.194665 12.262649 -0.35761499 0.11763895 -0.10311638 0.075180411 0.17356268
-8.21387 12.250659 -0.35760853 0.1067231 -0.11510512 0.078461349 0.1754856
-8.4051456 12.457786 -0.36849874 0.018829031 0.42002586 -0.83677626 0.93646717
-8.3346691 12.265731 -0.36055517 0.024361711 -0.17410885 0.09544152 0.20004116
-8.48598 12.40983 -0.36847085 0.21261966 -0.35515699 -0.05087924 0.41705194
-6.6512308 12.163804 -0.40725884 0.1168243 -0.033583105 -0.07748013 0.14414893
-6.789515 12.334888 -0.41617996 0.10137473 -0.056090772 -0.26211697 0.28658038
-6.8459144 12.34592 -0.41815606 0.046271831 0.079011828 -0.27596569 0.29075938
-6.8194118 12.201895 -0.4121871 0.059843272 -0.0038579702 -0.088484257 0.10689044
-7.0176334 12.47802 -0.42706901 -0.033649992 -0.1214883 0.093055695 0.15668789
-7.1571584 12.594102 -0.43399674 -0.060942933 -0.090998366 0.069597989 0.12976372
-7.1321182 12.360072 -0.42403984 0.029756997 -0.087010428 0.060724258 0.11019859
-7.274878 12.431154 -0.42997217 -0.10293902 -0.030911729 0.011634678 0.10810801
-7.4461432 12.642262 -0.44187298 0.041038297 0.13113457 -0.060009807 0.14993863
-7.5397282 12.667315 -0.44483128 0.074273869 0.19380835 -0.05929026 0.21585555
-7.6220222 12.533353 -0.44181618 0.074902929 -0.19067436 0.02426672 0.20629114
-7.9408216 12.262515 -0.43872175 -0.027648829 -0.18673654 0.033795446 0.19177364
-8.0052099 12.279553 -0.44069242 0.048293706 -0.49563348 -0.051264882 0.50061256
-8.0596189 12.278584 -0.4416697 0.0073450622 0.056245506 -0.75026697 0.75240815
-8.1399927 12.319634 -0.44563019 0.023271479 -0.36224151 0.084295005 0.37264746
-8.4797125 12.457844 -0.45846695 -0.010316679 -0.12170635 -0.061569333 0.13678323
-8.3682842 12.203761 -0.44654948 -0.018362012 0.12657145 -0.10130286 0.16315565
-6.9283447 12.196964 -0.49414456 0.085864738 0.055428833 -0.16614211 0.19505976
-7.1239667 12.185067 -0.49806795 -0.010258375 0.069390565 -0.074831992 0.1025676
