# .PCD v0.7 - Point Cloud Data file format
VERSION 0.7
FIELDS x y z normal_x normal_y normal_z curvature
SIZE 4 4 4 4 4 4 4
TYPE F F F F F F F
COUNT 1 1 1 1 1 1 1
WIDTH 85
HEIGHT 1
VIEWPOINT 0 0 0 1 0 0 0
POINTS 85
DATA ascii
10.499526 8.5139341 0.66697383 0.24843116 -0.21585414 -0.087487258 0.34053645
10.487124 8.5599127 0.66696817 0.176383 -0.18107706 -0.059382565 0.25966549
10.346135 8.7218266 0.66694731 0.32786337 -0.17618677 -0.17560585 0.41155019
10.006878 8.4648905 0.65297222 0.36810026 -0.86758554 0.14368899 0.9533357
9.929472 8.4538841 0.65097237 0.34420639 -0.10887298 0.37093574 0.51761442
9.858674 8.5018549 0.64996582 -0.0070235431 -0.026825055 0.11288694 0.11624274
9.8342733 8.5358372 0.64996159 0.0041644871 -0.042432413 0.16417612 0.16962208
9.8678932 8.6188059 0.65295273 0.035971642 -0.06845592 0.2136482 0.22721295
10.493876 8.4589615 0.57898039 0.34140778 -0.25175691 -0.19853052 0.46835369
10.466476 8.4919434 0.57897598 0.36947268 -0.27890331 -0.21720338 0.51134568
10.428076 8.5159283 0.57897246 0.34981737 -0.26028028 -0.20229466 0.48066738
10.451882 8.562911 0.57996726 0.27942097 -0.21379235 -0.15325822 0.38375947
10.362299 8.7108374 0.58094877 0.3477006 -0.181348 -0.1332988 0.41418761
10.017827 8.4798889 0.56897062 0.30428976 -0.88421267 0.086661987 0.93911374
9.8944054 8.4308939 0.56597453 -0.21502905 0.16530499 -0.074135929 0.28117496
9.8822041 8.4478846 0.56597239 -0.21035944 0.1573745 -0.06804812 0.27138236
10.504566 8.5099449 0.5159744 0.1654048 -0.18667212 -0.069457382 0.25890067
10.468164 8.5359287 0.51597071 0.31305784 -0.22681186 -0.10044146 0.39942122
10.460972 8.5569191 0.51596808 0.34330532 -0.23154196 -0.10154496 0.42635855
10.455577 8.6078959 0.515962 0.2749432 -0.16896468 -0.088194206 0.33454603
10.396378 8.7278376 0.51694727 0.31181151 -0.16309848 -0.068582006 0.35851222
9.9895267 8.495883 0.50696838 -0.15346204 0.010092497 0.081729621 0.17416137
9.9523287 8.49088 0.50596845 -0.52461654 -0.09441027 0.015212157 0.53326094
9.9309273 8.5278606 0.50596386 0.077314168 -0.092811137 0.15610434 0.19738276
9.9205313 8.5738411 0.50695848 0.08746013 -0.10769644 0.1162308 0.18099006
9.9201355 8.6288166 0.50695235 0.10518837 -0.12866616 0.10390288 0.19599843
10.48562 8.4849577 0.41197714 0.42647097 -0.20984253 -0.093621314 0.48443401
10.42922 8.4939461 0.41097516 0.36794022 -0.16934749 -0.083560824 0.413571
10.406821 8.5309286 0.41097039 0.32558411 -0.12799412 -0.060744978 0.35507387
10.40062 8.5539169 0.41196758 0.34199432 -0.15199602 -0.079999574 0.38270462
10.37322 8.5868998 0.41196328 0.15811108 -0.026715636 -0.02594541 0.16243769
10.348433 8.6768589 0.4119525 0.27902362 -0.10614428 -0.099975497 0.31482676
10.000969 8.4429111 0.40597472 -0.1268959 0.0093891323 0.038747538 0.13301165
9.9221611 8.4858828 0.40496856 0.04547748 -0.058492035 0.11281866 0.13497248
9.9239712 8.5138712 0.40596536 0.066905022 -0.083587587 0.13474905 0.172106
9.9285765 8.5728474 0.40595871 0.075870782 -0.086302131 0.12266206 0.1680786
10.471175 8.5339384 0.34197101 0.26888001 -0.11277741 -0.012089811 0.29182422
10.426775 8.5529242 0.34196809 0.26275647 -0.086479425 -0.039233796 0.27939031
10.412577 8.5689163 0.341966 0.209134 -0.057537884 -0.012291469 0.21725266
10.379177 8.5969 0.34196222 0.14531939 -0.026111037 -0.014075257 0.14831595
10.384389 8.7128525 0.34294882 0.18814358 -0.0754866 -0.047738791 0.2082672
10.149958 8.5718803 0.33996192 -0.1340813 0.010061771 0.047331408 0.14254577
9.9975414 8.4978914 0.33896828 0.022226676 -0.016479224 0.16477856 0.1670855
9.985342 8.514883 0.33896613 0.069955081 -0.051009864 0.17907569 0.19890657
9.9589386 8.5478659 0.33896199 0.059455127 -0.0586119 0.18091944 0.19925389
9.9505491 8.5948448 0.33895653 0.08455877 -0.077203274 0.17517644 0.20927809
10.279863 8.5549097 0.24696572 -0.10578866 0.011754274 0.040672958 0.11394601
9.9506187 8.444912 0.24597372 0.097676262 -0.065845251 0.065134853 0.13460609
9.9146252 8.5508623 0.24596103 0.082284093 -0.084049344 0.05566575 0.13012932
10.500819 8.6059198 0.18296285 -0.15368833 0.029673338 0.0524294 0.16507408
10.14199 8.5578928 0.18396342 -0.10399677 0.025937349 -0.0048080683 0.10729022
10.45691 8.5549402 0.096968286 -0.11200227 -0.0049031377 -0.014580354 0.11305369
10.197876 8.480938 0.098973244 -0.10572119 0.011678219 -0.034220785 0.11173367
9.9932604 8.5288906 0.099964648 0.08488965 -0.066975296 -0.010364074 0.10862485
9.966857 8.5618734 0.099960506 0.072573304 -0.068853885 -0.030266417 0.10451697
9.9896727 8.6078568 0.098955609 0.07952863 -0.064325273 0.0072358996 0.1025422
9.947484 8.7377977 0.098940648 0.072739989 -0.084364414 0.016345393 0.11258611
10.428976 8.5209551 0.013971938 -0.12841606 -0.005042702 0.013483688 0.12922044
10.242551 8.4239721 0.016980724 -0.093665764 0.0015887022 -0.040897168 0.10221731
9.9789448 8.5588808 0.017961014 0.080731273 -0.072071612 0.02131878 0.11030116
9.9697437 8.5788698 0.017958615 0.083695561 -0.079801321 0.010355862 0.1161053
9.9683495 8.6328478 0.017952515 0.070885926 -0.072783768 0.018596426 0.10328659
9.9829578 8.7008219 0.016945137 0.084467947 -0.092027605 0.02491153 0.12737542
9.915554 8.697814 0.017944641 0.063397735 -0.080266476 0.024913983 0.10527434
10.376071 8.461978 -0.079021774 -0.15009171 -0.0042566061 -0.0051152259 0.15023917
10.339145 8.4199953 -0.14701726 -0.10818158 0.01614219 0.022850484 0.11174063
9.9099474 8.7757902 -0.1440639 0.053126156 -0.10425714 0.014062065 0.11785448
9.8745537 8.7997761 -0.14406689 0.046011955 -0.10853283 0.028198302 0.121209
9.8656101 8.6408434 -0.22004969 0.047883362 -0.083378181 0.041342258 0.10466097
9.9054298 8.7018242 -0.22205591 0.04978171 -0.087583333 0.058646083 0.11656938
9.8710194 8.7288084 -0.22205926 0.04110992 -0.091438621 0.054055046 0.11389905
9.9684649 8.6108751 -0.30904502 0.057746857 -0.075093389 0.063157983 0.11385362
9.9520683 8.6518555 -0.30904981 0.06159237 -0.093376607 0.055804376 0.12500775
9.9466724 8.7028341 -0.31005552 0.051906824 -0.09612219 0.053886812 0.12180961
9.9622784 8.7728071 -0.31306297 0.043805808 -0.10093769 0.036997311 0.1160869
10.007092 8.8397865 -0.31606972 0.040999711 -0.13967022 0.058136873 0.15674388
10.007265 8.5319166 -0.38703549 0.023707449 -0.044535816 0.089216642 0.10249434
9.9950666 8.5489082 -0.38703761 0.021229237 -0.042363107 0.091269322 0.10283677
9.9596643 8.5738935 -0.38604096 0.044677675 -0.074623168 0.075979352 0.11548841
9.8962555 8.5748835 -0.38404194 0.04036206 -0.082518756 0.072403163 0.11696435
9.9108696 8.6418591 -0.38704923 0.029295027 -0.079566941 0.07886979 0.11579957
9.9004765 8.6878376 -0.38805446 0.027686357 -0.087650448 0.07464502 0.11841036
10.013105 8.8417902 -0.39606985 0.024043351 -0.12302317 0.053232327 0.13618541
9.9860001 8.6888533 -0.4670535 0.037636817 -0.090017721 0.057292327 0.11314651
9.982604 8.7418308 -0.46905938 0.03432408 -0.11906302 0.068111688 0.14139783
