# .PCD v0.7 - Point Cloud Data file format
VERSION 0.7
FIELDS x y z normal_x normal_y normal_z curvature
SIZE 4 4 4 4 4 4 4
TYPE F F F F F F F
COUNT 1 1 1 1 1 1 1
WIDTH 67
HEIGHT 1
VIEWPOINT 0 0 0 1 0 0 0
POINTS 67
DATA ascii
0.16096167 -2.7505274 0.035026848 0.11678594 0.2474186 -0.74355423 0.79229277
0.16478145 -2.7085299 0.038020737 0.15058665 0.29708892 -0.60474485 0.69040173
0.17336705 -2.5705349 0.046002027 -0.18180315 -0.24054998 0.0083217919 0.30163875
0.066577971 -2.8784862 -0.32992294 -0.014162831 0.092854716 -0.034903556 0.100204
0.074190319 -2.8904943 -0.3319248 -0.015480742 0.094512902 -0.033989906 0.10162508
0.082776845 -2.8915021 -0.33192796 -0.01684957 0.094769083 -0.034295678 0.10218259
0.088525258 -2.8755059 -0.32893157 -0.017270498 0.098808654 -0.03759709 0.10712124
0.096120507 -2.9035153 -0.33393189 -0.018413812 0.098874182 -0.03556329 0.10667671
0.10569795 -2.874522 -0.32893828 -0.018761046 0.10151995 -0.039233327 0.11044243
0.11429799 -2.8605292 -0.32694298 -0.02114623 0.1052988 -0.042393863 0.11546532
0.12189348 -2.8985386 -0.33294219 -0.021712761 0.11406945 -0.042468071 0.12363987
0.13048373 -2.8965466 -0.33294567 -0.0223126 0.11146925 -0.041839302 0.12113535
0.14003272 -2.8855548 -0.3309505 -0.02081446 0.10622628 -0.040972799 0.11574124
0.14481767 -2.8575578 -0.32595527 -0.022926565 0.10230282 -0.042530626 0.11313862
0.15339658 -2.8675663 -0.3279576 -0.022355907 0.10569822 -0.042881727 0.11623573
0.1619778 -2.879575 -0.32995972 -0.023953147 0.10439548 -0.040368974 0.1144632
0.17056566 -2.8565822 -0.32596561 -0.025880929 0.093184665 -0.039739251 0.10455818
0.17914805 -2.8565905 -0.32596904 -0.025681295 0.091757685 -0.039319545 0.10307778
0.18773501 -2.8805995 -0.32996979 -0.026478406 0.10254163 -0.039643288 0.11308175
0.21730822 -2.8806279 -0.3299816 -0.026068736 0.1027382 -0.038729966 0.11284824
0.23542972 -2.8766448 -0.32898936 -0.025089929 0.098896503 -0.037066251 0.10855381
0.38415426 -2.848793 -0.32605532 0.0020766156 0.095925063 -0.036412179 0.10262445
0.40130886 -2.8458107 -0.32506317 0.0021512471 0.096893519 -0.037739873 0.10400615
0.40508488 -2.8358154 -0.32406643 0.0028816089 0.093210161 -0.040426433 0.10164022
0.44800407 -2.8378592 -0.32508481 0.00041167159 0.11663701 -0.049132824 0.1265638
0.45757392 -2.8448682 -0.32608774 0.0014131675 0.11176229 -0.043976694 0.12011143
0.46038714 -2.8348722 -0.32409075 0.00036185235 0.11217172 -0.04835245 0.12214985
0.47854778 -2.8428898 -0.32609728 -0.0030594254 0.13522133 -0.056085706 0.14642328
0.48613146 -2.8338988 -0.32510227 -0.0015333956 0.11954696 -0.05204913 0.13039531
0.49470958 -2.8329079 -0.32510626 -0.002048634 0.11921249 -0.052312613 0.13020147
0.50627089 -2.8539166 -0.32810745 -0.00083308434 0.13815543 -0.052490383 0.14779329
0.51287621 -2.8409255 -0.32611278 -0.0018473803 0.14041933 -0.058196247 0.15201251
0.51665747 -2.8349304 -0.32511562 -0.0013029436 0.13038182 -0.055695802 0.14178555
0.52425897 -2.8299391 -0.32511994 0.00040528364 0.1217511 -0.053506553 0.13299039
0.53383923 -2.8369477 -0.32612285 -0.00093537988 0.13840735 -0.05849883 0.15026504
0.54141539 -2.8279574 -0.32512799 -0.0006005899 0.12633255 -0.055416554 0.13795386
0.55199623 -2.8419659 -0.32712996 -0.0012433357 0.14834161 -0.061242133 0.16049106
0.55858481 -2.8279753 -0.32513568 -0.00061738584 0.13014208 -0.05668807 0.1419538
0.56038171 -2.8109801 -0.32313991 0.0015980857 0.098340839 -0.046635091 0.10884993
0.57396126 -2.8449881 -0.32813913 0.00043230364 0.15133393 -0.061905116 0.16350654
0.58150691 -2.8319983 -0.32614514 -0.0006061946 0.13317385 -0.057543367 0.14507543
0.58909076 -2.8250077 -0.32515001 -0.00023827609 0.12599522 -0.055495292 0.13767563
0.59970582 -2.8420155 -0.32815126 -0.00076533016 0.14405867 -0.060179025 0.15612495
0.60726833 -2.8320255 -0.32715675 -0.00070582889 0.13467385 -0.057531923 0.14644954
0.62820828 -2.8250489 -0.3261677 0.00094473723 0.11585386 -0.052224845 0.12708439
0.63583416 -2.8240569 -0.32617137 0.00064817583 0.1162297 -0.052377939 0.12748809
0.64537668 -2.8240671 -0.32717574 0.0015773599 0.115373 -0.051827133 0.12648901
0.65395719 -2.8230765 -0.32717985 0.0016561653 0.10627975 -0.048232228 0.11672392
0.66358167 -2.8330841 -0.32818198 0.0016881928 0.13013574 -0.055169284 0.14135703
0.67033726 -2.8420892 -0.33018303 0.0007743591 0.15008524 -0.060477078 0.16181365
0.67791641 -2.835099 -0.32918802 0.0027906003 0.13618019 -0.056269705 0.14737405
0.6855365 -2.8331072 -0.32919195 0.0022225785 0.13523677 -0.056069076 0.14641607
0.69508284 -2.8331172 -0.32919627 0.0030028848 0.13139594 -0.054974049 0.14246422
0.70366633 -2.8321266 -0.32920042 0.0026212945 0.13245778 -0.055549055 0.14365804
0.71225911 -2.8321357 -0.33020434 0.0041900948 0.12779658 -0.05373621 0.13869788
0.72083414 -2.8301454 -0.33020872 0.0025215698 0.11440825 -0.0500848 0.12491635
0.72562623 -2.8321497 -0.33021045 0.0017063618 0.12808992 -0.053815991 0.13894638
0.73322833 -2.8281591 -0.33021489 0.00042400323 0.11251996 -0.048827112 0.1226581
0.7397902 -2.8151696 -0.32822102 -0.00078938436 0.092767671 -0.04259786 0.1020835
0.74937552 -2.8191786 -0.32922444 -0.00079327263 0.092975363 -0.042696685 0.10231351
0.77914643 -2.836205 -0.33323389 -0.0014697788 0.12651034 -0.051160008 0.13647114
0.79350603 -2.8392193 -0.33423972 -0.0034233872 0.12775934 -0.050468206 0.13740891
0.80206364 -2.8352296 -0.33324462 -0.0049459012 0.12493613 -0.049596101 0.13451123
0.80768234 -2.8242388 -0.33225003 -0.0078747822 0.093368351 -0.040526897 0.10208864
0.82025898 -2.8392472 -0.33425194 -0.0087832846 0.12156903 -0.047107756 0.13067254
0.83081311 -2.8432572 -0.33525571 -0.0089492816 0.12480258 -0.047232926 0.13374126
0.84878701 -2.8262818 -0.33426845 -0.01200565 0.093343213 -0.037433118 0.10128341
