# .PCD v0.7 - Point Cloud Data file format
VERSION 0.7
FIELDS x y z normal_x normal_y normal_z curvature
SIZE 4 4 4 4 4 4 4
TYPE F F F F F F F
COUNT 1 1 1 1 1 1 1
WIDTH 59
HEIGHT 1
VIEWPOINT 0 0 0 1 0 0 0
POINTS 59
DATA ascii
14.732469 -11.53718 0.18148933 -0.48677894 -0.1183915 0.49801362 0.70639074
14.704245 -11.478199 0.18147485 -0.48600984 -0.11051352 0.49315804 0.70115876
14.706802 -11.406225 0.18145519 -0.48355934 -0.09856604 0.49066225 0.6959126
14.721364 -11.344251 0.18143757 -0.49247405 -0.084434249 0.48812428 0.69851643
14.705921 -11.259281 0.18141524 -0.49915808 -0.06649442 0.48953667 0.70230085
14.709481 -11.189306 0.18139593 -0.50914431 -0.046719145 0.49104023 0.70889431
14.720044 -11.125332 0.18137787 -0.49998778 -0.034159198 0.4908835 0.70151353
14.714604 -11.04936 0.18135732 -0.50442004 -0.010150076 0.49597603 0.70748484
14.701383 -11.003377 0.18134539 -0.49906671 -0.0057517565 0.49538839 0.70321429
14.702945 -10.933404 0.18132605 -0.50329894 -0.009263875 0.49422994 0.7054494
14.696509 -10.858432 0.18130571 -0.40035301 -0.0064235954 0.48304576 0.6274209
14.700066 -10.789458 0.18128645 -0.45615956 -0.012996123 0.49078694 0.67016584
14.704629 -10.722485 0.18126765 -0.55883121 -0.0070201447 0.48904043 0.74263191
14.703191 -10.651512 0.18124802 -0.50813854 -0.0083551267 0.49262702 0.70778245
14.705752 -10.583539 0.18122898 -0.47913358 -0.012599686 0.49233726 0.68711257
14.699533 -10.544554 0.18221846 -0.51161712 -0.015015388 0.49203649 0.70998412
14.691097 -10.469584 0.18219799 -0.50289798 -0.010806361 0.49014929 0.70233148
14.685658 -10.396611 0.18217787 -0.50551814 -0.010359138 0.48947665 0.70373523
14.698219 -10.336636 0.18216038 -0.50067246 -0.010965908 0.48955595 0.70032722
14.689784 -10.262665 0.18214007 -0.50012618 -0.011203619 0.4892531 0.69972873
14.700345 -10.20169 0.18212233 -0.4997685 -0.010508005 0.48912466 0.69937253
14.688122 -10.158706 0.18211088 -0.50645238 -0.012220266 0.48899695 0.70410323
14.677689 -10.084735 0.18209057 -0.51167274 -0.011859959 0.48915127 0.70796794
14.676253 -10.016763 0.18207142 -0.50143474 -0.011200572 0.48807845 0.69984484
14.683816 -9.9547882 0.18205343 -0.44306636 -0.0099745728 0.48506674 0.65703654
14.673378 -9.8808174 0.182033 -0.49073169 -0.011137134 0.48832777 0.69239128
14.680944 -9.8198433 0.18201524 -0.41134369 -0.025295498 0.48050219 0.6330291
14.692506 -9.760869 0.18199781 -0.50037134 -0.011557283 0.48877019 0.69957227
14.661289 -9.7078886 0.18198436 -0.49743524 -0.010942454 0.48867601 0.69739932
14.662851 -9.6429148 0.18196571 -0.50622016 -0.010465293 0.48878756 0.70376247
14.681413 -9.5889387 0.18194923 -0.50080633 -0.011231138 0.48909566 0.70010549
14.676985 -9.5219669 0.18193026 -0.50409901 -0.013703338 0.4890455 0.70247358
14.671545 -9.4529953 0.18291073 -0.48392022 -0.014496966 0.48930266 0.68833572
14.680112 -9.394021 0.18289328 -0.49953723 -0.010175861 0.48933271 0.69934791
14.660895 -9.3500376 0.18288162 -0.49782255 -0.01012366 0.48949754 0.69823897
14.656454 -9.2820654 0.18286224 -0.51692444 -0.0088900086 0.49027163 0.71249992
14.673025 -9.2290907 0.18284601 -0.50050527 -0.010759704 0.49036694 0.70077175
14.665592 -9.1611195 0.18282671 -0.50382584 -0.010197504 0.49020901 0.70302868
14.667155 -9.0981455 0.18280834 -0.51777011 -0.0087033352 0.48993814 0.71288216
14.671718 -9.0371723 0.18279035 -0.51148647 -0.0106254 0.48908693 0.70776927
14.665289 -8.9712 0.18277147 -0.49342099 -0.0090484908 0.48919028 0.69487643
14.650069 -8.9302168 0.18276034 -0.49919894 -0.0087677632 0.48819071 0.69828838
14.65164 -8.8692427 0.18274245 -0.4959614 -0.0092393095 0.48759419 0.69556534
14.6522 -8.8062706 0.18272398 -0.49879664 -0.0091823321 0.48771161 0.69767112
14.656769 -8.7472973 0.18270645 -0.51027274 -0.0083105024 0.48764119 0.70586205
14.659339 -8.6873245 0.1826887 -0.49890637 -0.0084241843 0.48728511 0.697442
14.651906 -8.6213531 0.18266968 -0.49724555 -0.0081456685 0.48719716 0.69619006
14.656471 -8.5623798 0.18265207 -0.49909246 -0.0080022085 0.48716471 0.69748604
14.650257 -8.5283937 0.18264239 -0.4990896 -0.0079955319 0.48704889 0.69740301
14.646825 -8.4654217 0.18262397 -0.49909857 -0.0076524885 0.48681515 0.69724238
14.65239 -8.4074478 0.18260652 -0.49550095 -0.007295364 0.48682153 0.69467235
14.644956 -8.3424768 0.18258767 -0.40431583 -0.0044333832 0.47765103 0.62581265
14.650527 -8.2855024 0.18257047 -0.50248724 -0.010594049 0.48674768 0.69966346
14.653092 -8.2265291 0.1835528 -0.50677484 -0.010109184 0.48693472 0.7028715
14.63588 -8.1875458 0.18354212 -0.50677073 -0.0098939342 0.48667315 0.70268428
14.640444 -8.1295719 0.18352461 -0.50131321 -0.0063445796 0.48640564 0.69853103
14.634013 -8.0666008 0.18350616 -0.49531403 -0.0054191481 0.48610786 0.69402176
14.642581 -8.0116262 0.18348929 -0.481947 -0.0043433476 0.48557404 0.68415928
14.631152 -7.9466558 0.18347044 -0.49527624 -0.0030835604 0.48575953 0.69373655
