# .PCD v0.7 - Point Cloud Data file format
VERSION 0.7
FIELDS x y z normal_x normal_y normal_z curvature
SIZE 4 4 4 4 4 4 4
TYPE F F F F F F F
COUNT 1 1 1 1 1 1 1
WIDTH 51
HEIGHT 1
VIEWPOINT 0 0 0 1 0 0 0
POINTS 51
DATA ascii
14.570782 -6.8002057 -0.12887435 -0.022877961 0.11635325 0.14437622 0.1868314
14.566356 -6.7432337 -0.12789163 -0.02825734 0.12671357 0.16665083 0.21125177
14.565922 -6.6872606 -0.12790884 -0.032590687 0.18403848 0.18891549 0.26574683
14.573498 -6.6362863 -0.12792492 -0.0052083433 0.22548376 0.16799124 0.2812314
14.549277 -6.5973034 -0.12693577 0.0079918504 0.2297356 0.14100428 0.26967484
14.565852 -6.5503283 -0.12695105 0.0093048215 0.20137361 0.13677478 0.2436088
14.564419 -6.4943562 -0.12596829 0.036771655 0.27775708 0.12468641 0.30667222
14.561994 -6.439383 -0.12598518 0.066326171 0.30677196 0.11773381 0.33521551
14.557568 -6.3834109 -0.12500228 0.071102887 0.32179177 0.12237428 0.35154092
14.576133 -6.3364363 -0.12501772 0.081189066 0.36810353 0.13963166 0.40198117
14.544922 -6.2964535 -0.12402863 0.065597802 0.37585509 0.17319705 0.41900754
14.549494 -6.2444801 -0.12404498 0.078695863 0.39796513 0.16066574 0.43632874
14.550071 -6.1915069 -0.12306146 0.10920742 0.3131246 0.10090899 0.3466351
14.560637 -6.1415329 -0.12307748 0.11129019 0.33976626 0.10338049 0.37217489
14.547211 -6.0825615 -0.12309521 0.10896552 0.36274678 0.10854143 0.39400503
14.554785 -6.0325875 -0.12211112 0.069553524 0.14295542 0.10300916 0.18943293
14.544353 -5.9746165 -0.12212871 -0.56164008 0.79482663 -0.12756024 0.98156029
14.623145 -5.9806204 -0.12313042 -0.5573346 0.7998817 -0.1239195 0.98274547
14.601802 -6.8162036 -0.21187095 -0.02227807 0.091945365 0.13421853 0.16420986
14.60137 -6.7602305 -0.21188813 -0.023014158 0.10437565 0.15319398 0.18679488
14.608947 -6.7092562 -0.21090417 -0.019482434 0.14087965 0.16837157 0.2203988
14.606513 -6.6522846 -0.20992158 -0.0026191175 0.22596629 0.14645059 0.26928684
14.599087 -6.5943122 -0.20993909 -0.0043726861 0.23667258 0.17047581 0.29171053
14.589869 -6.5623274 -0.20894851 -0.0082654953 0.21921811 0.18179265 0.28490958
14.59844 -6.511353 -0.20896466 0.04894045 0.27537736 0.11161273 0.30113995
14.589018 -6.4533811 -0.20798212 0.067799807 0.31664267 0.11680036 0.34424078
14.592588 -6.4004078 -0.20799866 0.080259591 0.31141171 0.11744989 0.34236431
14.590162 -6.3454351 -0.20701559 0.09330228 0.27634203 0.079637423 0.30234477
14.592735 -6.2924619 -0.20603213 0.085018575 0.36318326 0.13104296 0.39535111
14.590308 -6.2374897 -0.20604905 0.075421304 0.37579411 0.15203354 0.41233939
14.585094 -6.2085037 -0.20505781 0.086757869 0.37578309 0.1368496 0.40922815
14.576661 -6.1505318 -0.20507543 0.13159633 0.37986434 -0.073643595 0.4087027
14.582236 -6.0995588 -0.20409153 0.13550356 0.30758056 -0.063550159 0.34206089
14.580809 -6.0455856 -0.20410827 0.099385053 0.29485545 0.11952922 0.33332321
14.590385 -5.9966116 -0.20312396 -0.066626519 -0.0093429387 0.13169366 0.14788376
14.558568 -6.7652278 -0.30588448 -0.097738206 0.071248509 -0.35916409 0.37898278
14.567142 -6.7142534 -0.30490062 -0.50124234 0.1096655 0.45203984 0.68382049
14.558712 -6.6552815 -0.30391833 -0.69636911 0.12847833 0.3969762 0.81180459
14.55728 -6.599309 -0.30393553 -0.44246945 0.18759847 0.46064395 0.66570657
14.55685 -6.5443358 -0.3029525 -0.38825279 0.23956451 0.48044893 0.66254246
14.557425 -6.4903631 -0.30196917 -0.42361557 0.27572051 0.49620935 0.70830476
14.552215 -6.4613771 -0.30197787 -0.42220181 0.27775919 0.49553317 0.70778364
14.550777 -6.4054046 -0.30099514 -0.38717863 0.3096467 0.47687849 0.68789637
14.55335 -6.3524313 -0.30001166 -0.34748894 0.33288103 0.47662657 0.677297
14.554925 -6.299458 -0.30002815 -0.36814713 0.34610614 0.4663626 0.68761605
14.553493 -6.2444859 -0.29904518 -0.34954569 0.33985454 0.45773286 0.66873217
14.54007 -6.185514 -0.29806286 -0.30537972 0.34412393 0.45156488 0.64466184
14.539855 -6.1585279 -0.29707122 0.11589897 0.381372 -0.21920478 0.45489329
14.546425 -6.107554 -0.2970874 0.10838348 0.3721194 -0.26238382 0.46804386
14.533994 -6.048583 -0.29610518 -0.34363231 0.34231743 0.4284988 0.64720601
14.537572 -5.9976091 -0.29512122 -0.34399897 0.32208207 0.40654874 0.62237769
