# .PCD v0.7 - Point Cloud Data file format
VERSION 0.7
FIELDS x y z normal_x normal_y normal_z curvature
SIZE 4 4 4 4 4 4 4
TYPE F F F F F F F
COUNT 1 1 1 1 1 1 1
WIDTH 205
HEIGHT 1
VIEWPOINT 0 0 0 1 0 0 0
POINTS 205
DATA ascii
6.451407 -9.3210268 0.5934639 0.014766549 0.10224861 -0.099863261 0.14368542
7.4458647 -9.3091717 0.61337644 -0.0016106665 -0.09960188 0.063547105 0.11815821
7.4356394 -9.2661858 0.61136591 -0.0080137104 0.077115625 -0.090443015 0.1191259
7.4542112 -9.2312012 0.61135513 0.0014316291 0.10387933 -0.14046881 0.17471248
6.323545 -9.2980204 0.51946902 -0.0011911429 0.089082688 -0.10204074 0.13546017
6.3651171 -9.2970276 0.51946527 0.0061617438 0.084150016 -0.10550791 0.13509667
6.4067054 -9.2980328 0.52046198 0.0030160677 0.11928248 -0.17739037 0.21378669
6.4294834 -9.299036 0.52046031 0.0064105098 0.077079773 -0.11021951 0.13465039
7.3508272 -9.3211594 0.53638756 -0.018363446 -0.085383162 0.052384764 0.10184137
7.4195371 -9.2312012 0.53535807 0.016889006 0.091480792 -0.15080127 0.17718633
7.4253135 -9.208209 0.53535151 0.015132561 0.088140339 -0.16664627 0.18912612
5.4165297 -9.3508825 0.45655799 0.033961654 -0.060250878 0.099691764 0.12133428
5.4483299 -9.3738804 0.45756075 -0.026838928 -0.080780923 0.13527431 0.15982811
5.4788947 -9.3588886 0.45755473 -0.062605888 -0.1075666 0.16971964 0.21046336
5.521481 -9.3668928 0.45755309 -0.15157564 -0.12940508 0.15788352 0.25425982
5.5510454 -9.3499012 0.45754665 -0.16361508 -0.089520603 0.12230733 0.22303119
5.6036325 -9.3739023 0.459548 -0.10329568 -0.1400747 0.094942659 0.19825494
5.630198 -9.3519115 0.45854062 -0.06417571 -0.11716723 0.080256343 0.15584531
5.6727777 -9.3579159 0.45953849 0.013729711 -0.095957398 0.060550898 0.11429234
5.6895638 -9.3529196 0.4595359 0.034921508 -0.098463565 0.060234725 0.12059356
5.9170175 -9.3349562 0.4615126 0.011615414 -0.089464307 0.056332529 0.10635852
5.9548111 -9.3629541 0.46251619 0.024237666 -0.091598421 0.051954299 0.1080601
5.9803715 -9.3379641 0.46250796 0.01016295 -0.10071939 0.057001501 0.11617596
6.4732819 -9.3310356 0.46846458 -0.016466528 0.085095048 -0.15803686 0.18024418
6.512866 -9.328042 0.46946046 0.017746346 0.068653971 -0.13303369 0.15075232
6.5514336 -9.3210497 0.46945542 -0.0038656071 0.057222188 -0.10489964 0.11955442
6.6593781 -9.3220654 0.47144651 -0.0094392449 -0.08064875 0.096269816 0.12594125
6.7089581 -9.331069 0.47144458 -0.010662377 -0.12135503 0.11608636 0.16827588
6.7475257 -9.3230782 0.47243929 -0.020501208 -0.12928405 0.11394671 0.17354688
6.7881041 -9.3190842 0.47243482 -0.027076181 -0.11741596 0.10410476 0.15924017
6.836679 -9.3250895 0.47343221 -0.03295204 -0.11809818 0.093149513 0.15398003
6.8802533 -9.3240957 0.47442824 -0.012161808 -0.085716248 0.067854494 0.10999735
6.9188342 -9.3171034 0.47442314 0.024188556 -0.079781353 0.059252411 0.10227902
7.2550855 -9.3721333 0.48040897 0.024436831 -0.088184327 0.075749427 0.1187923
7.3374557 -9.3891401 0.48140645 0.019952446 -0.072122514 0.074316502 0.10546421
7.4015951 -9.351161 0.48139116 -0.052274376 -0.082746774 0.036659539 0.10451584
7.4622941 -9.2492046 0.4803592 0.01748912 0.069262981 -0.15841617 0.17377834
7.4590769 -9.2162151 0.48035076 0.026936188 0.05589819 -0.1391336 0.1523428
5.4894109 -9.3009129 0.37454021 -0.028998911 -0.017003626 0.1106707 0.11566358
5.5239906 -9.294919 0.37453592 -0.051979065 -0.026493102 0.14678262 0.15795203
5.5645728 -9.2989235 0.37553349 -0.13825665 -0.050901055 0.15879925 0.21661721
5.6021361 -9.2949295 0.37552941 -0.13717793 -0.041466743 0.10568951 0.17806613
5.6377158 -9.2899361 0.37552524 -0.13417546 -0.060985595 0.099667042 0.17792082
5.6773005 -9.2919416 0.37552238 -0.028508643 -0.054709107 0.083469123 0.10379269
5.7396617 -9.2969494 0.37651834 0.017186293 -0.06192714 0.078550339 0.10149135
6.0334926 -9.2889929 0.37849155 0.03467986 0.044611067 -0.089806587 0.10610402
6.1492138 -9.2780123 0.37947896 0.02858948 0.03730461 -0.089098617 0.10073508
6.1750107 -9.2870131 0.37947899 0.047130898 0.03605178 -0.089234114 0.10716239
6.2175803 -9.2880182 0.38047564 0.046474013 0.03009361 -0.08486402 0.10132799
6.8066583 -9.2801056 0.38542324 -0.038679775 -0.050935894 0.086100534 0.1072562
7.1254902 -9.261158 0.38739109 0.044070743 0.054847449 -0.10297142 0.12471402
7.1710649 -9.2611647 0.38838717 0.05883956 0.059007138 -0.14401777 0.16638826
7.2116442 -9.2551718 0.38838214 0.04168506 0.047631741 -0.1234822 0.13875979
7.2424259 -9.2641745 0.38938189 0.035881862 0.066438645 -0.16590792 0.18228287
7.2920065 -9.2691784 0.38937896 0.042308286 0.057950586 -0.15731949 0.17290947
7.3295879 -9.2591877 0.38937315 0.034500629 0.050613135 -0.13300435 0.14643136
7.3791656 -9.2631931 0.39036995 0.043398723 0.057555646 -0.13382679 0.15200563
7.4127417 -9.2472038 0.39036289 0.042479232 0.039093226 -0.092207298 0.10878856
5.4655118 -9.2749205 0.3185361 -0.054485224 0.022921354 -0.092181154 0.10950522
5.5792356 -9.2709379 0.31952563 -0.099649318 0.018040001 -0.049460232 0.112702
5.6228137 -9.2789412 0.31952387 -0.12438582 0.0056181252 -0.020589389 0.12620348
5.6781793 -9.2739506 0.319518 -0.034740355 0.025905609 -0.10708378 0.11552025
5.7157464 -9.2699566 0.32051387 -0.0074140541 0.037579566 -0.1353652 0.14068024
5.7573323 -9.2749615 0.32051155 0.01628289 0.034877867 -0.12593359 0.13168472
5.7908969 -9.2639694 0.32050607 0.030255491 0.033061475 -0.1251514 0.13293354
5.881053 -9.2809772 0.32150251 0.035194848 0.03397736 -0.12403363 0.13333222
6.744144 -9.2621059 0.32542402 -0.04494299 0.025405467 -0.10169791 0.11405164
6.7807236 -9.2531147 0.32541856 -0.042440321 0.028482437 -0.11152081 0.12267568
6.8222995 -9.2501211 0.32641423 -0.0014437176 0.03512609 -0.12583767 0.13065621
6.879869 -9.2671242 0.32641366 -0.0088555003 0.050859183 -0.14173764 0.15084639
6.9036632 -9.2701273 0.32641241 -0.0014782478 0.059504241 -0.1581358 0.16896707
6.9462423 -9.2681341 0.32740822 0.021455159 0.058281779 -0.15702319 0.16885903
6.9938197 -9.2721395 0.32740518 0.068202145 0.055838436 -0.14368677 0.16856854
7.0243845 -9.2521505 0.32739741 0.068308428 0.047549993 -0.13641047 0.15979631
7.0849676 -9.2731524 0.32739767 0.060331121 0.05328992 -0.14260821 0.16375823
7.1235404 -9.2641611 0.32839203 0.048122428 0.051448524 -0.14442882 0.16069351
7.1581144 -9.2501698 0.32838541 0.065058015 0.051315486 -0.13083071 0.15486284
7.1898999 -9.2611713 0.32838556 0.060011372 0.049605429 -0.1377776 0.15825526
7.2524834 -9.2831726 0.329386 0.022745565 0.054079771 -0.1707121 0.18051206
7.2820559 -9.2621841 0.32937798 0.021233007 0.039767146 -0.14074568 0.14778909
7.3376355 -9.274188 0.3293764 0.01769504 0.031398475 -0.12233856 0.12753707
7.3832059 -9.2721949 0.32937199 0.021541059 0.02734229 -0.10616405 0.11172477
5.5532365 -9.5288706 0.24458842 0.080724657 -0.060590893 -0.063155532 0.11906447
5.6278281 -9.5898638 0.24559672 0.14442462 -0.11795065 -0.064745933 0.19739012
5.6986532 -9.6798496 0.24561211 -0.07800743 0.061036795 -0.072297364 0.12262772
5.6841936 -9.5848722 0.24559109 0.18454514 -0.16870914 -0.057368636 0.25653625
5.7813649 -9.6158762 0.24559067 0.22607088 -0.21318898 -0.049550787 0.31466311
5.8555079 -9.6038895 0.24558197 0.29581359 -0.2081255 -0.16414869 0.39719856
5.888309 -9.6258879 0.24558456 0.26556453 -0.15081203 -0.17218457 0.35059422
5.9458938 -9.6538877 0.24558663 0.049159512 0.03922683 -0.35444117 0.35997769
5.9624586 -9.6139002 0.24557582 0.48071527 -0.37849626 -0.36417085 0.71201617
6.0616212 -9.6419058 0.24557459 0.47645432 -0.77287352 -0.2074891 0.93133986
6.0937443 -9.5599327 0.24555235 0.66156083 -0.56706738 -0.29103881 0.9186576
6.1365414 -9.5949287 0.24555732 0.70156372 -0.60396481 -0.22446054 0.95254797
6.2261534 -9.6729183 0.24656893 -0.39414939 0.78609824 -0.14363983 0.89103115
6.2477155 -9.6399307 0.24655926 0.09335041 0.099569112 -0.010588169 0.13689564
6.5359797 -9.9588766 0.24761361 0.045723628 -0.59542179 0.68581176 0.90937096
6.3890023 -9.5959616 0.24653718 0.51258969 -0.61534774 0.32735401 0.86519462
6.4097953 -9.5959644 0.24653549 0.30900156 -0.63768452 0.455993 0.84264654
6.5670991 -9.5749922 0.24651754 -0.14397354 -0.60333687 0.1437161 0.6367088
6.6236777 -9.5939941 0.24651763 0.32800281 -0.19305126 -0.7120567 0.80739051
6.6930456 -9.6000013 0.24651347 -0.15313274 -0.43510711 -0.0036397874 0.46128199
6.8147717 -9.585021 0.24749982 0.50373197 -0.069501519 -0.33302706 0.60785145
6.8388891 -9.492054 0.24647444 0.29771239 -0.04885751 -0.18980116 0.35643262
6.892693 -9.5370474 0.24748136 0.36954096 -0.15104908 -0.09237127 0.40976673
7.0098619 -9.5760508 0.24748161 0.19851959 -0.0033439994 -0.099654272 0.2221535
7.0394306 -9.5540619 0.24747361 0.41351953 -0.15758781 -0.19236219 0.48253036
7.1465964 -9.5770693 0.24747069 0.44373167 -0.26514119 0.012050211 0.51705205
7.2169623 -9.5790777 0.24746546 0.56264871 -0.54317641 -0.48180583 0.91855919
7.2515321 -9.5630875 0.24745855 0.66902208 -0.43004128 -0.34391209 0.86648804
7.3596973 -9.584095 0.24845511 0.86079174 -0.38284242 -0.21238029 0.96573091
7.389266 -9.5611067 0.24844678 0.8563664 -0.4023895 -0.16693026 0.96080512
7.4654169 -9.5381241 0.2484346 0.87206364 -0.35940024 -0.1690442 0.95824814
5.6821442 -9.7278395 0.19262451 -0.19179545 0.11348793 -0.10072365 0.24456136
5.5356216 -9.4039049 0.19356064 -0.030402869 0.031161457 -0.14911754 0.15534288
5.8368902 -9.7858429 0.1926261 -0.057247575 0.028644979 -0.14105032 0.15489678
5.7654004 -9.5938854 0.19258676 0.23560907 -0.15755188 -0.15698691 0.32400483
5.8780251 -9.7178659 0.19260703 -0.19265333 0.089803964 -0.15673293 0.26409331
5.9145937 -9.7098722 0.19260231 -0.18032546 0.085972607 -0.18521775 0.27242279
5.9573908 -9.7468681 0.19260769 -0.0048442204 0.0454261 -0.19452816 0.19982043
5.7158237 -9.2779646 0.19351578 -0.04833927 0.018786043 -0.10577579 0.11780543
5.9506116 -9.4669437 0.19254164 -0.028265692 -0.67117161 0.14286953 0.68679106
6.1482563 -9.7188997 0.19258612 0.061702318 0.12487993 -0.34554023 0.37255901
6.1960559 -9.7618933 0.19259265 0.078632906 0.02831012 -0.25702623 0.27027223
6.2386346 -9.7628994 0.19258955 0.11806557 0.056618482 -0.33649105 0.36106974
6.0160828 -9.342988 0.19250621 0.015532505 0.032754034 -0.24772412 0.2503624
6.4564042 -9.9038868 0.19160648 -0.0098682819 -0.61874038 0.60482836 0.86530596
6.5893497 -9.9398928 0.19160494 0.042730052 -0.49970579 0.80799538 0.9509933
6.500874 -9.7389393 0.19156311 -0.0033530123 -0.13028005 0.012900621 0.13096014
6.7255321 -9.7149744 0.19153936 0.10270553 0.43047452 -0.68548179 0.81593013
6.8632536 -9.7199907 0.1915296 0.15801144 0.15694821 -0.40003455 0.4578515
6.743763 -9.4850464 0.19248056 0.14442234 0.0059843659 -0.10294591 0.17745841
6.788341 -9.4860525 0.19147711 0.16992976 0.0010012686 -0.1016221 0.19800045
6.9589643 -9.6640205 0.19150792 0.082149431 0.086591035 -0.29850355 0.32148236
7.0077572 -9.700016 0.19151303 0.13594757 0.072727591 -0.26619202 0.30761865
7.0503392 -9.6970224 0.19150886 -0.072630681 0.062627852 -0.25609916 0.27346709
7.0969071 -9.6970291 0.19150512 0.031220594 0.066083044 -0.25777826 0.26793903
7.1284895 -9.679039 0.19149804 0.038740918 0.080924422 -0.26367524 0.27852154
7.0620165 -9.5240774 0.19146413 0.053354826 -0.39182407 0.20888659 0.4472208
7.2724357 -9.7170448 0.19149612 0.13314314 0.078186721 -0.20207781 0.25431418
7.2535443 -9.5660896 0.19145913 0.65777135 -0.47918087 -0.25711998 0.85345656
7.3961563 -9.694068 0.19148035 0.35393101 0.22824031 -0.12661996 0.43976519
7.3502631 -9.5101213 0.1914368 0.77276266 -0.49868232 -0.2114872 0.94370174
7.5248799 -9.6760912 0.19146541 -0.44255883 0.67980254 0.17436644 0.82969481
7.4341803 -9.465147 0.1914182 0.74146396 -0.59381384 -0.1145455 0.95681989
7.6778169 -9.7160988 0.1904635 -0.067721732 -0.72959518 0.33115816 0.8040902
5.4451389 -9.4828787 0.12358636 0.077773452 -0.032968879 -0.094750285 0.12693806
5.6253533 -9.6638546 0.12161409 -0.13496633 -0.01632607 0.18501335 0.2295918
5.6749344 -9.6808567 0.12161419 -0.2282823 -0.083720952 0.27396101 0.3663013
5.7873378 -9.7728462 0.12062688 -0.15039608 -0.73651344 0.1536251 0.76724946
5.8199081 -9.7588539 0.12062112 -0.14895454 -0.74183989 0.13013028 0.76775497
5.8354759 -9.7168665 0.12061012 -0.08440043 -0.14827543 0.16819212 0.23957802
5.9086237 -9.702879 0.12060113 -0.12769608 -0.14438188 0.16088682 0.25107166
5.9521985 -9.7068844 0.12059867 -0.011600537 -0.18075255 0.16085914 0.2422431
5.7328372 -9.304965 0.12352083 -0.11669368 0.0099298656 -0.067791238 0.13532062
6.0255671 -9.7258883 0.11959742 -0.0055889152 -0.56553704 0.19186518 0.59722328
6.0821581 -9.7518883 0.11959916 -0.050357707 -0.6339131 0.15258837 0.65396094
6.1097207 -9.7278976 0.1195913 -0.023373075 -0.59365362 0.14199105 0.61084563
6.1798706 -9.706913 0.11958077 0.037533116 -0.36295146 0.13302734 0.38837969
6.2254438 -9.7119169 0.11957837 0.042178355 -0.42674431 0.12004939 0.44531065
6.3118234 -9.7489176 0.11858046 -0.031425267 -0.42124689 0.07920596 0.42977908
6.3343916 -9.7179289 0.11857121 -0.01701518 -0.33314353 0.076389223 0.34221259
6.5310578 -9.9598856 0.11661422 0.0062244525 0.12865314 0.019212812 0.13022867
6.556169 -9.8619165 0.11658865 0.02659392 -0.1062934 -0.012767106 0.11031103
6.5147047 -9.7319479 0.11756031 0.0099637862 -0.19694988 0.042309076 0.20168935
6.6617775 -9.658989 0.11753064 0.070975959 -0.06902504 0.03608042 0.10537476
6.7143521 -9.6709919 0.11752938 0.048527576 -0.12821138 0.050899774 0.14623225
6.7251315 -9.6539984 0.1175243 0.061554544 -0.090510041 0.048249662 0.11962048
6.834301 -9.6850033 0.11652321 0.037789948 -0.22818655 0.093495995 0.24947682
6.8558683 -9.6520157 0.11651324 0.11724227 -0.13485825 0.099235684 0.2044021
6.9300141 -9.6300325 0.11650173 0.039204314 -0.12871867 0.0932962 0.16373655
6.9845977 -9.6440353 0.11650083 0.11974797 -0.12393102 0.094136328 0.19636731
7.0809708 -9.6830368 0.11550289 -0.029300204 -0.22667089 0.12049365 0.25837359
7.1095452 -9.6600475 0.11549478 0.036229894 -0.16403733 0.1207754 0.20689985
7.17869 -9.6290665 0.11548132 0.097149372 -0.11354113 0.081215709 0.17007522
7.2442713 -9.6550665 0.11448263 0.17021161 -0.094369039 0.090286493 0.21454407
7.3216381 -9.6650734 0.11447895 0.25096461 -0.14010458 0.13762158 0.3186726
7.3692145 -9.6660795 0.11447537 0.34376964 -0.162671 0.18286711 0.42199501
7.4163513 -9.604105 0.11445565 0.30958238 -0.11994851 0.22882704 0.40322539
7.5029464 -9.6561003 0.11346203 0.38404328 -0.19280636 0.2309508 0.48785427
7.5222902 -9.5881243 0.11344291 0.3990747 -0.15335573 0.30407318 0.52463233
7.616888 -9.6491175 0.11345105 0.29386348 -0.3937099 0.17568746 0.52175599
5.6381345 -9.6488647 0.053609628 -0.22756498 -0.080500394 0.21152844 0.32095236
5.7685418 -9.7718496 0.050628088 -0.11765105 -0.68659157 0.064822316 0.69960821
5.7430849 -9.6588755 0.052603759 -0.086139038 -0.082597733 0.10327619 0.15782361
5.9243951 -9.6908894 0.050597072 -0.034696866 -0.074203163 0.057489216 0.10007493
5.9967585 -9.7078943 0.050595418 -0.0041237287 -0.080639392 0.060011327 0.10060356
5.9814172 -9.4819546 0.052542731 0.023866203 -0.20005135 0.18746361 0.27519584
6.1996307 -9.6989222 0.048577297 0.057910196 -0.076300696 0.037687004 0.1029354
6.2015243 -9.5369692 0.050538041 0.084808625 -0.22040397 0.16568318 0.28848106
6.5589166 -9.8259315 0.044579715 0.0088611934 -0.1123583 -0.0078895986 0.11298298
5.4041615 -9.4109068 -0.073427029 0.001863569 -0.033305585 0.10105926 0.10642231
5.4317265 -9.3909159 -0.072433911 0.011982717 -0.037733972 0.10644455 0.11356883
5.4793086 -9.4069185 -0.073434055 -0.0039135963 -0.058219403 0.13519897 0.14725344
5.5118861 -9.396925 -0.074439049 -0.013238549 -0.058864474 0.13721544 0.14989451
5.5484543 -9.3919315 -0.074443214 -0.03474196 -0.059329391 0.13207574 0.14889923
5.5820227 -9.381938 -0.074448317 -0.048910961 -0.058490038 0.12636687 0.14758711
5.6276145 -9.3949413 -0.075448997 -0.051487409 -0.064995736 0.12725464 0.15188529
5.6433973 -9.3879452 -0.075451948 -0.062565312 -0.058784008 0.11711836 0.14521256
5.6889725 -9.3979492 -0.076453328 -0.037500076 -0.072543025 0.11932053 0.14458954
5.7145438 -9.374958 -0.076460905 -0.023377823 -0.060622483 0.10709108 0.12526016
5.7631249 -9.3899612 -0.077461347 -0.029405452 -0.072222441 0.10942192 0.13436487
5.7896862 -9.366971 -0.077469051 -0.029406348 -0.04957819 0.084430516 0.10223132
5.8412733 -9.3869724 -0.078468539 -0.024708124 -0.066705495 0.097106025 0.12037314
5.902638 -9.3889809 -0.079473153 0.014877215 -0.068559676 0.09605515 0.11894685
