# .PCD v0.7 - Point Cloud Data file format
VERSION 0.7
FIELDS x y z normal_x normal_y normal_z curvature
SIZE 4 4 4 4 4 4 4
TYPE F F F F F F F
COUNT 1 1 1 1 1 1 1
WIDTH 59
HEIGHT 1
VIEWPOINT 0 0 0 1 0 0 0
POINTS 59
DATA ascii
14.582094 -11.529166 0.26849511 -0.44900215 -0.11303017 0.68264979 0.82485723
14.573648 -11.448195 0.26847365 -0.43364668 -0.064776324 0.74016696 0.86028636
14.582212 -11.382219 0.2684553 -0.49025777 -0.029313633 0.49840632 0.69972908
14.561986 -11.329238 0.26844198 -0.49245921 0.02885684 0.56874925 0.75287747
14.580544 -11.270262 0.26842493 -0.50863469 0.01638446 0.53153944 0.73587489
14.555101 -11.178294 0.26740119 -0.50327015 0.081049576 0.55464005 0.75330967
14.567666 -11.116319 0.26738358 -0.51386219 0.049807351 0.53036171 0.74014771
14.568229 -11.045345 0.26736408 -0.49735409 0.030665008 0.51546758 0.71694368
14.577785 -10.980371 0.2673457 -0.49876726 0.015721409 0.51794076 0.71922082
14.546562 -10.921391 0.26733115 -0.5006699 0.015978856 0.52774513 0.72762668
14.561125 -10.861415 0.26731384 -0.49927619 0.015489861 0.52625871 0.72557902
14.554682 -10.785444 0.26729318 -0.49504843 0.015816534 0.53501743 0.72908622
14.567244 -10.724468 0.26727563 -0.51776278 0.012504671 0.51947474 0.7335453
14.548805 -10.6415 0.26625362 -0.50787121 0.007620295 0.52493399 0.73044294
14.564364 -10.582523 0.26623636 -0.48994815 0.00031980895 0.51996797 0.71443403
14.554926 -10.506553 0.26621571 -0.51813602 -0.0042260988 0.51619357 0.73139495
14.558705 -10.474565 0.26620656 -0.54877263 -0.0125796 0.50751233 0.74758172
14.540265 -10.392596 0.26618466 -0.49845541 -0.00596892 0.5072974 0.71122712
14.546827 -10.328622 0.26616639 -0.52638358 -0.0068358146 0.50025105 0.72620761
14.547387 -10.260649 0.26614726 -0.49583179 -0.010096491 0.49359235 0.69970316
14.547954 -10.193676 0.26612839 -0.50351799 -0.0073554181 0.48965642 0.70238727
14.540514 -10.120705 0.2651082 -0.51584291 -0.0057594976 0.48967353 0.71127158
14.557077 -10.064729 0.26509148 -0.50081724 -0.01158508 0.48843899 0.69966048
14.521852 -10.006749 0.26507699 -0.50027597 -0.011533184 0.48872277 0.69947052
14.536416 -9.9497738 0.26506007 -0.49996132 -0.011044911 0.48877898 0.69927692
14.526985 -9.8778028 0.26504013 -0.50175762 -0.011103189 0.48895136 0.70068353
14.538546 -9.8188276 0.26502272 -0.50645697 -0.010898883 0.48896405 0.70406199
14.53511 -9.7508545 0.26500353 -0.51129746 -0.01081628 0.48905456 0.70761323
14.543674 -9.6908808 0.26498592 -0.48341942 -0.010266457 0.48897794 0.68767661
14.527232 -9.6139116 0.26496479 -0.4780314 -0.003575637 0.48904094 0.68387705
14.524013 -9.5789251 0.26395497 -0.49529833 -0.0063038091 0.49023733 0.69691664
14.52158 -9.5129528 0.26393616 -0.46391222 -0.01130606 0.48914763 0.67424607
14.529144 -9.4529791 0.26391849 -0.50759768 -0.010723064 0.48999831 0.70559812
14.518702 -9.3810081 0.26389831 -0.50183249 -0.010588685 0.4898791 0.70137686
14.544273 -9.3340302 0.26388335 -0.49984354 -0.010426002 0.48979306 0.69989252
14.523836 -9.257061 0.26386222 -0.013085991 0.10339168 -0.0090301605 0.10460702
14.518614 -9.221076 0.26385209 -0.49172333 -0.0097273281 0.49091339 0.69489741
14.514187 -9.1561031 0.26383349 -0.49969909 -0.01062263 0.49019969 0.700077
14.517746 -9.0941305 0.26381528 -0.58366108 -0.00775907 0.48314139 0.75772423
14.511311 -9.0271578 0.26279613 -0.52988082 -0.003416799 0.48894212 0.7210061
14.527882 -8.9751825 0.26278007 -0.49808249 -0.01047257 0.48977548 0.69862425
14.509445 -8.9012127 0.26275948 -0.50144869 -0.010494779 0.48969749 0.70097399
14.522009 -8.8462381 0.2627427 -0.50251788 -0.0099306693 0.48850799 0.70090151
14.504787 -8.8042545 0.26273134 -0.5027743 -0.0092586065 0.48790509 0.70065618
14.502356 -8.7412825 0.26271302 -0.64507723 -0.0051823379 0.46653414 0.79611909
14.507925 -8.6833076 0.26269567 -0.46791369 -0.011230923 0.48738259 0.67573011
14.511494 -8.6243343 0.26267812 -0.50015342 -0.0081458287 0.48781133 0.69869858
14.511057 -8.5623627 0.26265988 -0.49612904 -0.0081925103 0.48745877 0.69557685
14.496618 -8.4923916 0.26264 -0.50544745 -0.005603618 0.48709956 0.70197898
14.511408 -8.4714022 0.262633 -0.50506163 -0.0055785384 0.48705444 0.70166969
14.490971 -8.3984337 0.2616125 -0.506154 -0.0030690744 0.48739976 0.70268047
14.500538 -8.3434591 0.2615957 -0.56643212 0.00098395208 0.48267236 0.7441901
14.504106 -8.2854853 0.26157826 -0.48777059 -0.005677552 0.48711804 0.68937391
14.492676 -8.2195148 0.26155928 -0.4568302 -0.0010453449 0.48536199 0.66653669
14.487242 -8.1565428 0.2615408 -0.49688905 -0.0052664727 0.48706546 0.6958155
14.503813 -8.1065674 0.26152501 -0.49693903 -0.0045508444 0.4868868 0.69572109
14.482591 -8.0645847 0.26151359 -0.49955925 -0.0051507461 0.48630416 0.69719273
14.487157 -8.0076113 0.26149631 -0.49204034 -0.0043710843 0.48611811 0.69168895
14.483725 -7.9466386 0.26147822 -0.50859904 -0.0014221787 0.4860543 0.7035082
