# .PCD v0.7 - Point Cloud Data file format
VERSION 0.7
FIELDS x y z normal_x normal_y normal_z curvature
SIZE 4 4 4 4 4 4 4
TYPE F F F F F F F
COUNT 1 1 1 1 1 1 1
WIDTH 54
HEIGHT 1
VIEWPOINT 0 0 0 1 0 0 0
POINTS 54
DATA ascii
-7.9110594 -9.9695091 0.64818031 0.25707448 -0.22074153 0.083519205 0.34898362
-7.8794718 -9.995491 0.64819467 -0.25527644 0.014382631 -0.057223875 0.26200667
-7.7919188 -9.9504347 0.64522004 -0.17769247 -0.075789928 0.1791351 0.2634542
-7.7503328 -9.962409 0.64423609 -0.036939286 -0.12149641 0.21391223 0.24876562
-7.664166 -9.9823589 0.64326859 -0.17121577 0.025914758 -0.066812694 0.18560806
-7.6074076 -9.9433203 0.64128363 -0.28880879 -0.022735655 -0.047513805 0.29357278
-7.5062532 -9.9422598 0.63931847 0.084299535 -0.074526399 0.11083536 0.15794009
-7.3961062 -9.9281931 0.63635451 -0.19599742 -0.016393334 -0.026367649 0.19844139
-7.3185582 -9.8921432 0.6333766 -0.071525842 -0.09613961 0.15690874 0.19743131
-7.2709756 -9.893116 0.63239282 0.34687409 -0.22357105 0.056861967 0.41658002
-7.2681661 -9.9211159 0.63339698 0.35740548 -0.30606472 0.10474825 0.48206484
-7.2755432 -9.9961262 0.63540328 -0.0062990906 -0.45063794 0.31178316 0.54801726
-7.2279615 -9.9970989 0.63441938 0.38936117 -0.26275453 0.035836145 0.47109053
-7.8751087 -9.9344988 0.56418866 0.25439125 -0.80189103 -0.052676439 0.84292287
-7.8762965 -9.9675016 0.56519234 0.35782805 -0.61360824 -0.088666394 0.71583354
-7.7767644 -9.9094362 0.56222034 0.18408082 -0.063317448 -0.14291482 0.2414943
-7.7231951 -9.907403 0.56123894 0.0098611712 -0.14843285 -0.50415915 0.52564818
-7.6925983 -9.9323854 0.56125265 0.13544814 -0.059581459 -0.30591547 0.33982411
-7.6550126 -9.9493637 0.56126779 -0.1466289 0.019033343 -0.23185621 0.2749902
-7.5874462 -9.9273214 0.55928862 -0.23337747 -0.0015371144 -0.19449946 0.30380496
-7.5336833 -9.8912868 0.55730289 -0.14892051 -0.0068435669 -0.29509288 0.3306115
-7.4831061 -9.890255 0.55732024 -0.097202532 0.023808897 -0.16435283 0.19242413
-7.4465303 -9.909235 0.55633503 0.10028106 -0.017300934 -0.30455619 0.3211076
-7.2944241 -9.8401384 0.55237877 -0.11954825 0.018442035 -0.12338395 0.17278741
-7.2598319 -9.85812 0.55239254 0.42015687 -0.28947678 -0.32313296 0.60394001
-7.2272463 -9.8801012 0.55240607 0.433954 -0.2524308 -0.14085704 0.52141929
-7.2494144 -9.9411192 0.55440563 0.44047439 -0.29262692 -0.27210981 0.59472007
-7.2118235 -9.9550982 0.55341989 0.45331827 -0.48780486 -0.36235684 0.75812501
-7.1053028 -9.8780298 0.55044657 0.37681177 -0.75738931 -0.048440143 0.84733236
-7.0597286 -9.8820038 0.5494622 -0.32427618 -0.10958493 -0.048009455 0.3456426
-7.9171305 -9.9995403 0.50518185 0.091537602 -0.19980592 -0.46321982 0.51271254
-7.8785391 -10.015517 0.50519747 0.030017927 -0.10318041 -0.40886605 0.42275137
-7.7859993 -9.965456 0.5032239 0.056125082 -0.13494501 -0.45886475 0.48157766
-7.7454104 -9.9784327 0.50223976 -0.026762486 -0.14740708 -0.50724518 0.52890712
-7.7128167 -10.001413 0.50225395 -0.0065400749 -0.12330106 -0.48483923 0.50031489
-7.6572428 -9.9953785 0.50127256 -0.00081735849 -0.85511285 0.16426058 0.87074691
-7.5924869 -9.9453363 0.50028902 0.066856511 -0.84369314 0.16682355 0.86262274
-7.5449109 -9.9493074 0.49930596 -0.038915955 -0.096686661 -0.47265106 0.48400599
-7.4983277 -9.9532795 0.49832246 0.013400532 -0.14633477 -0.52250683 0.54277694
-7.4637394 -9.9732599 0.49833667 0.046520062 -0.14597631 -0.5234437 0.54540491
-7.3562131 -9.8981905 0.49536455 0.20613544 -0.33309415 0.26049757 0.47042802
-7.3086295 -9.8991613 0.49538079 0.24265456 -0.30729079 -0.55090779 0.6758759
-7.275044 -9.9201431 0.49539459 -0.23196988 -0.65226793 0.24574788 0.73461246
-7.2902198 -9.9721556 0.4963955 0.21177506 -0.23053649 -0.54426134 0.62786633
-7.2656255 -10.005144 0.4964076 0.18274947 -0.18534678 -0.53698379 0.59674317
-7.1990633 -9.9811029 0.49542716 -0.094648317 0.021111935 -0.26102638 0.27845788
-7.115519 -9.9340496 0.4934496 0.09907411 -0.79609656 0.17860258 0.82187849
-7.0739384 -9.9430265 0.49246442 0.032851655 -0.11946201 -0.54957026 0.56336302
-7.3241701 -9.851182 0.39936996 -0.019014411 -0.46369007 0.34744769 0.57973266
-7.2616105 -9.8341446 0.39838913 -0.014864269 -0.46174288 0.34093833 0.57416582
-7.248003 -9.8801394 0.39939907 -0.015354359 -0.46477294 0.33654726 0.57403284
-7.2403889 -9.9341393 0.39940789 -0.014469661 -0.46474221 0.33236665 0.57154375
-7.2127938 -9.9621248 0.40042037 0.21084917 -0.08928594 0.060599193 0.23685779
-7.165029 -9.9310951 0.39943278 -0.0061860108 -0.46332946 0.32786733 0.56763494
