# .PCD v0.7 - Point Cloud Data file format
VERSION 0.7
FIELDS x y z normal_x normal_y normal_z curvature
SIZE 4 4 4 4 4 4 4
TYPE F F F F F F F
COUNT 1 1 1 1 1 1 1
WIDTH 124
HEIGHT 1
VIEWPOINT 0 0 0 1 0 0 0
POINTS 124
DATA ascii
-8.0641346 -9.533576 0.64007056 -0.034696929 0.038294554 -0.1119121 0.12326665
-8.0195446 -9.5415487 0.6390878 -0.038628615 0.061053932 -0.15151167 0.16785571
-7.969965 -9.5445175 0.63810611 -0.060995206 0.11198458 -0.22615391 0.25962773
-7.9281912 -9.5264893 0.637119 -0.055326656 0.10004276 -0.19477016 0.22584288
-7.8746166 -9.524456 0.63613808 -0.0542178 0.11972797 -0.18879893 0.23004216
-7.8320298 -9.5344296 0.6351546 -0.0038127154 0.091738403 -0.13614362 0.16421193
-7.7992015 -9.6784201 0.63818407 0.035471901 -0.10874751 0.052916288 0.12603337
-7.7616124 -9.6943979 0.63819933 0.03084214 -0.10582115 0.051363766 0.12160423
-7.7418189 -9.7013855 0.63720721 0.041291356 -0.10615499 0.041156799 0.12111045
-7.9110594 -9.9695091 0.64818031 -0.26189017 -0.26693019 0.88683051 0.96244818
-7.8794718 -9.995491 0.64819467 -0.33437604 -0.29551864 0.85157847 0.96141797
-7.7919188 -9.9504347 0.64522004 -0.26031211 -0.27907455 0.88644528 0.96510631
-7.7503328 -9.962409 0.64423609 0.11288872 0.080180161 0.034213305 0.14262983
-7.664166 -9.9823589 0.64326859 -0.02820709 -0.1744125 0.0010301769 0.1766817
-7.6074076 -9.9433203 0.64128363 -0.093538389 -0.27966237 0.039287865 0.29749623
-7.5062532 -9.9422598 0.63931847 0.0021800138 0.19940037 -0.35085818 0.40356749
-7.4626637 -9.949234 0.63833421 -0.043906242 0.15837929 -0.41956708 0.45060882
-7.3961062 -9.9281931 0.63635451 -0.072750762 0.093303412 -0.15238006 0.19291936
-7.2681661 -9.9211159 0.63339698 0.014349632 0.068495244 -0.14468007 0.16071662
-7.2755432 -9.9961262 0.63540328 0.0059463382 0.063670427 -0.18943191 0.19993432
-7.2279615 -9.9970989 0.63441938 0.013621278 0.065682143 -0.19601008 0.20717055
-7.1254344 -9.9250326 0.6304453 0.093007371 -0.012105942 0.052344143 0.10740966
-7.0848508 -9.93501 0.6304599 0.074104682 0.045743108 -0.088152349 0.12391438
-7.0352716 -9.9319801 0.62947595 0.007163927 0.040906012 -0.13778923 0.14391142
-7.8306837 -9.4834394 0.55414873 -0.019129544 0.043493629 -0.10121619 0.11181392
-7.8048978 -9.4834232 0.55415797 -0.0010446459 0.042738259 -0.11206519 0.11994272
-7.7962785 -9.5324211 0.55416709 -0.00016452372 0.083379418 -0.15154541 0.17296869
-7.782681 -9.5784159 0.55517763 0.078259915 -0.015716881 -0.064771041 0.10279553
-7.7700677 -9.6234112 0.55618769 0.07521303 -0.070815355 0.0025466383 0.10333586
-7.7214837 -9.6253815 0.55520511 0.10035995 -0.058510453 -0.031235933 0.12029661
-7.700891 -9.6633711 0.55621707 0.070583746 -0.075798929 0.015714705 0.10475922
-7.8751087 -9.9344988 0.56418866 -0.0038108826 -0.23012733 -0.23908189 0.33186331
-7.8762965 -9.9675016 0.56519234 -0.010281891 -0.18078697 -0.20291211 0.27196133
-7.7767644 -9.9094362 0.56222034 -0.19335577 -0.17944969 0.44564164 0.5178659
-7.7231951 -9.907403 0.56123894 -0.1687232 -0.24569471 0.46421391 0.55165929
-7.6925983 -9.9323854 0.56125265 -0.22781982 -0.25870764 0.54398191 0.64400917
-7.6550126 -9.9493637 0.56126779 -0.15622528 -0.19689369 0.4482407 0.51389998
-7.5874462 -9.9273214 0.55928862 -0.095579788 -0.090836197 0.12607688 0.1824338
-7.2118235 -9.9550982 0.55341989 0.05262902 -0.033487976 0.094255984 0.11302853
-8.0026293 -9.5425615 0.49909404 -0.04772234 0.036049932 -0.10898314 0.1243155
-7.936069 -9.5265179 0.49711615 -0.049924351 0.0525029 -0.13896962 0.15672125
-7.9024758 -9.5474987 0.49713087 -0.044496655 0.063061982 -0.12406179 0.14610986
-7.8517027 -9.5174646 0.4961454 -0.056977481 0.066578597 -0.12878707 0.15577309
-7.836102 -9.5604582 0.49615633 0.0048388243 0.042194575 -0.097737432 0.10656642
-7.8098822 -9.6504488 0.49817681 0.045060217 -0.084818304 0.057995334 0.11219637
-7.7337046 -9.6814032 0.49720767 0.017369121 -0.080623865 0.076086491 0.11220984
-7.8280106 -9.8584747 0.50119597 0.083433479 -0.11356162 -0.10180454 0.17384347
-7.9171305 -9.9995403 0.50518185 0.068354398 -0.18245688 0.011507019 0.19518004
-7.8785391 -10.015517 0.50519747 -0.015319109 -0.042558521 -0.11028256 0.11919793
-7.7859993 -9.965456 0.5032239 -0.0063694417 -0.075912669 -0.13598004 0.15586492
-7.5924869 -9.9453363 0.50028902 -0.073432386 -0.0066696405 0.068333223 0.10052974
-7.7814574 -9.5514393 0.40017477 -0.031423464 0.046351939 -0.090227403 0.10619284
-7.7500043 -9.7584352 0.40221131 0.088780642 -0.11826926 0.029764682 0.15084946
-7.8702683 -9.9655247 0.40619421 0.073565811 -0.21479292 -0.055042289 0.23361845
-7.8434811 -9.9645081 0.40620357 0.050534785 -0.10239124 -0.075273454 0.13676192
-7.7599401 -9.9264536 0.40422833 0.084225744 -0.14154121 -0.11536153 0.20108747
-7.7083611 -9.9254217 0.4042463 0.094561785 -0.091889799 -0.011991417 0.13239887
-7.67277 -9.9444008 0.40426102 -0.085717767 0.041594505 -0.04307238 0.10456036
-7.6261945 -9.9503736 0.40327793 -0.10690147 0.040541202 -0.073830329 0.13609713
-7.165029 -9.9310951 0.39943278 0.04000365 0.035955429 -0.1130387 0.12518319
-7.0734925 -9.8730364 0.39745662 -0.074891552 -0.015178531 -0.069270626 0.10313851
-7.0209236 -9.8670053 0.39747334 -0.089490056 -0.03253445 -0.058050849 0.11152068
-7.8529906 -9.5754976 0.33615214 -0.08316955 0.044512153 -0.038077187 0.10172698
-7.8187852 -9.6574821 0.3371745 0.091091901 -0.088051558 0.0071883276 0.12689556
-7.7851925 -9.678462 0.33718905 0.088913351 -0.087680846 -0.0033236742 0.12491821
-7.7426023 -9.6874361 0.33720523 0.086019725 -0.094315112 0.017284438 0.12881571
-7.6860299 -9.6804008 0.33622435 0.093888372 -0.092700541 0.012052178 0.13249028
-7.6542525 -9.6733809 0.33623469 0.11507472 -0.10357904 0.013673812 0.15542774
-7.6116657 -9.6823549 0.33625072 0.089739427 -0.087492675 0.042521313 0.13234876
-7.5005202 -9.6682854 0.33528781 -0.040034264 -0.051582962 0.10070921 0.12002455
-7.4549403 -9.6732588 0.33530417 -0.032431625 -0.083516568 0.12263639 0.15187663
-7.4003654 -9.6662245 0.33432215 -0.027756527 -0.05665049 0.081808269 0.1033068
-7.3745756 -9.6642094 0.3343308 -0.020255275 -0.086976826 0.11299002 0.1440208
-7.3260016 -9.6651793 0.33434755 -0.02936279 -0.072660238 0.096635193 0.12441882
-7.2694387 -9.6561451 0.33336583 0.038283311 -0.088354826 0.1081062 0.14477271
-7.224853 -9.6601181 0.33338141 0.049795534 -0.072455168 0.093664497 0.12846161
-7.1832671 -9.6680946 0.3333964 0.057371117 -0.059267372 0.09313947 0.12441473
-7.1307001 -9.663063 0.33241355 -0.012228705 -0.067816645 0.096820667 0.11883973
-7.0851231 -9.6660366 0.3324292 -0.034183428 -0.055364192 0.076665089 0.10055465
-7.0503349 -9.6500149 0.33243901 -0.017266452 -0.058224857 0.097639754 0.11498602
-7.0007668 -9.6479855 0.33245528 -0.0073351264 -0.048089653 0.095525548 0.10719864
-7.7091408 -9.5744219 0.24820328 -0.06971617 0.046618521 -0.098854192 0.12963712
-7.6685615 -9.5873976 0.24821922 -0.043670565 0.038145542 -0.090317309 0.10732855
-7.6109896 -9.5783606 0.24823841 -0.05864802 0.048161596 -0.10289564 0.12785399
-7.5564137 -9.5723276 0.24825683 -0.076525509 0.046366423 -0.093222439 0.12921464
-7.5246401 -9.5653076 0.2482671 -0.073554225 0.039088964 -0.077769026 0.11395697
-7.4710665 -9.5602741 0.24828516 -0.058235586 0.041766763 -0.083184451 0.10979754
-7.419497 -9.5582428 0.24830282 -0.058406312 0.046770394 -0.094437778 0.12048759
-7.3779054 -9.5662174 0.24731813 -0.075252034 0.040968269 -0.071494371 0.11159173
-7.3233347 -9.5591841 0.24733607 -0.063470662 0.062985152 -0.15991586 0.18321773
-7.2757621 -9.5611553 0.2473526 -0.023990948 0.064414293 -0.15517159 0.16971442
-7.0061026 -9.5529947 0.24744275 0.065500155 0.031469613 -0.096841529 0.1210739
-6.955534 -9.5489645 0.24745913 0.064222991 0.023258418 -0.079130605 0.10453325
-7.8362803 -9.6095142 0.18916233 0.029108435 -0.012643069 -0.097081207 0.10213672
-7.8206711 -9.6515074 0.18917309 0.076318517 -0.044113666 -0.093663573 0.12862113
-7.796073 -9.6834946 0.18918578 0.12574893 -0.087932289 -0.10469763 0.18575919
-7.9596906 -10.00562 0.18816742 0.069623858 -0.21256368 -0.007427305 0.22379893
-7.5546045 -9.6043386 0.1892613 0.0093593746 0.023414016 -0.1141049 0.11685779
-7.7106113 -9.9854641 0.18925276 -0.077625677 0.062897027 -0.084385075 0.13077699
-7.6780243 -10.009445 0.18926704 -0.14781588 0.060021639 -0.11875126 0.19888185
-7.219799 -9.4921255 0.19036369 -0.026848553 0.027950943 -0.099431731 0.10671818
-7.5528941 -9.9793663 0.18930677 -0.080934316 0.045446247 -0.20349397 0.22366385
-7.5211091 -9.9703465 0.18931665 -0.052032199 0.043394715 -0.19859317 0.20983255
-7.4129634 -9.95928 0.18935236 -0.03000154 0.036548376 -0.19220378 0.19793476
-7.2722273 -9.9681959 0.18940111 0.039656304 0.047767788 -0.19686183 0.20641939
-7.1333046 -9.9451122 0.18944494 -0.11969474 -0.043908387 -0.11850405 0.17406318
-6.9752002 -9.8590117 0.18948749 -0.09836714 -0.028058201 -0.071926929 0.12504734
-7.8023386 -9.7405167 0.10819055 0.13471723 -0.086566329 -0.097331516 0.18739232
-7.7884865 -9.9105196 0.1072163 0.14063364 -0.17936216 -0.036012441 0.23074986
-7.7061262 -9.9034681 0.10824437 0.22706449 -0.22009434 -0.13362443 0.34330058
-7.6985173 -9.9584675 0.1072537 0.2070145 -0.17081086 -0.11805902 0.2932052
-7.1562362 -9.8041267 0.11142113 -0.16634467 -0.026006877 -0.10982827 0.20102029
-7.1885819 -9.9101543 0.11042248 -0.15374705 -0.048903853 -0.085458487 0.18257299
-7.229733 -9.9971867 0.10941871 0.054094017 0.04083845 -0.079582922 0.10453412
-7.0902462 -9.8760939 0.11145137 -0.21622731 -0.095870614 -0.13538954 0.27253577
-7.0656524 -9.908082 0.11146317 -0.1976855 -0.096827716 -0.12665826 0.25396353
-6.9001913 -9.7489719 0.11249977 -0.046994179 0.01094225 -0.14951774 0.1571106
-7.8855071 -9.8855925 0.028178899 0.11617231 -0.15907304 0.08938098 0.21630812
-7.8532925 -9.972578 0.027201049 -0.048351467 -0.04925704 0.10627465 0.12672183
-7.8045316 -9.9455462 0.028214937 -0.041132271 -0.047338009 0.10743541 0.12439902
-7.7053742 -9.9494848 0.028250217 -0.11638823 -0.055822074 0.14111488 0.19124784
-7.6102166 -9.957427 0.029284304 -0.10888232 -0.027320921 0.054492414 0.12478467
-7.435699 -9.9583197 0.031344481 0.0056612324 -0.062924474 0.088585168 0.10880657
-7.0408998 -9.9180803 0.035472486 -0.025714368 -0.053354949 0.082989171 0.10195677
