# .PCD v0.7 - Point Cloud Data file format
VERSION 0.7
FIELDS x y z normal_x normal_y normal_z curvature
SIZE 4 4 4 4 4 4 4
TYPE F F F F F F F
COUNT 1 1 1 1 1 1 1
WIDTH 57
HEIGHT 1
VIEWPOINT 0 0 0 1 0 0 0
POINTS 57
DATA ascii
14.651659 -11.521146 0.84048927 -0.5037328 -0.1124351 0.54083949 0.74759328
14.656221 -11.451172 0.83947009 -0.45178497 -0.10811685 0.5410071 0.71308315
14.669783 -11.388197 0.83845222 -0.50864613 -0.090711512 0.53920335 0.74678624
14.681346 -11.324222 0.83743423 -0.51435536 -0.071904063 0.53383279 0.74478793
14.676902 -11.247251 0.83541352 -0.48571211 -0.04556825 0.51823127 0.71172774
14.679465 -11.177277 0.83439422 -0.51485771 -0.026350901 0.50850344 0.72411919
14.657244 -11.124295 0.83238095 -0.51527941 -0.010661976 0.50568801 0.72204357
14.664805 -11.058321 0.83136243 -0.51839364 -0.0064561469 0.502967 0.72232223
14.670364 -10.990348 0.83034348 -0.52635163 -0.0037055472 0.5035432 0.72843361
14.662924 -10.913377 0.82832265 -0.51838923 -0.0037408564 0.50325179 0.7224983
14.665492 -10.845403 0.82730377 -0.48832652 -9.6196309e-05 0.50345975 0.70138043
14.667051 -10.775431 0.82528436 -0.54087985 0.0012540044 0.50131667 0.73747611
14.668614 -10.706457 0.82426512 -0.49787015 -0.0013121897 0.50421238 0.7085948
14.652392 -10.659474 0.82325298 -0.51799494 -0.0027661128 0.50354326 0.7224142
14.660959 -10.5965 0.82223499 -0.51528138 0.0011010319 0.50314164 0.72018582
14.658516 -10.524529 0.82021505 -0.54259205 -0.0018409248 0.50130004 0.73872274
14.654079 -10.452557 0.81919521 -0.49938521 -0.0030851141 0.50417387 0.70963824
14.664646 -10.391582 0.81817758 -0.49832299 -0.00030213874 0.50488144 0.7093879
14.651208 -10.313612 0.81615651 -0.52016312 -0.00024798885 0.50375599 0.72411311
14.663769 -10.253637 0.81513894 -0.49692857 -0.0013292413 0.50472844 0.70830119
14.651553 -10.211653 0.81412774 -0.50325918 0.0018337956 0.50340974 0.71182483
14.64511 -10.138682 0.81210756 -0.55798662 -0.0024176147 0.49998793 0.74922818
14.645675 -10.071709 0.81108862 -0.49798983 -0.003819 0.50363499 0.70827723
14.642241 -10.002737 0.81006926 -0.5319441 -0.00036459696 0.50282657 0.73198307
14.642809 -9.9367647 0.80805057 -0.52826571 0.0028099259 0.50314659 0.72954029
14.65037 -9.8747902 0.80703253 -0.49633047 -0.0012860587 0.50313503 0.7067464
14.638146 -9.8328066 0.80602121 -0.50253028 -0.0029432941 0.50355822 0.71141851
14.626715 -9.7598362 0.80500108 -0.50119072 -0.0029525873 0.50362587 0.71052086
14.633277 -9.6978626 0.80398303 -0.48590884 -0.0036628214 0.50255185 0.69905591
14.639844 -9.6368885 0.80296522 -0.52403182 0.0018320596 0.50247371 0.7260114
14.634408 -9.5679169 0.80094576 -0.66726828 0.0040090159 0.47452745 0.81880361
14.64297 -9.5079422 0.79992807 -0.51479429 -0.00033181719 0.50330126 0.71994823
14.650542 -9.4489689 0.79891068 -0.49926028 -0.0016582264 0.50350094 0.70906752
14.619318 -9.3959885 0.79789716 -0.49299011 0.0033485787 0.50343263 0.70462394
14.617886 -9.3310165 0.79587847 -0.53424531 0.0011655986 0.50242567 0.73338324
14.631455 -9.2760401 0.79586184 -0.52703434 -0.0029022293 0.50321257 0.72869509
14.618015 -9.2030706 0.79384148 -0.62948501 -0.0010859221 0.48653281 0.79559207
14.633581 -9.1490955 0.79382497 -0.52072859 -0.0031285211 0.50307679 0.7240541
14.636153 -9.0881224 0.7928071 -0.41075197 0.016020373 0.4949277 0.64337176
14.615936 -9.0441389 0.79079539 -0.58011925 -0.011791671 0.49673629 0.7638222
14.614501 -8.9801664 0.78977686 -0.50399202 -0.0013854131 0.50323606 0.71221936
14.62007 -8.9211931 0.78875935 -0.5073688 -0.0015354455 0.50277895 0.71429133
14.615631 -8.8552208 0.78774029 -0.41811806 -0.0046225199 0.4960852 0.64880246
14.624199 -8.7982483 0.78672314 -0.49464065 -0.001743407 0.502123 0.70484036
14.625768 -8.7372742 0.78570515 -0.50519091 -0.0025486061 0.50207114 0.71224982
14.625335 -8.6753025 0.78468698 -0.51401228 -0.003881414 0.50196165 0.71846312
14.60212 -8.631319 0.78367531 -0.50892848 -0.0026163124 0.50155854 0.71454602
14.608685 -8.5733461 0.78265786 -0.4117693 -0.0076696444 0.4942044 0.64331234
14.609252 -8.512373 0.78163981 -0.50993115 -0.0014470685 0.50041425 0.71445525
14.612819 -8.4534006 0.78062224 -0.50697529 -0.0013722349 0.49990079 0.71198779
14.610394 -8.3924274 0.77960432 -0.53919518 -0.00081795361 0.49827293 0.73417163
14.61196 -8.3324547 0.77858645 -0.56286889 6.4808875e-05 0.49354854 0.74860644
14.61553 -8.2744818 0.77756906 -0.53947794 -0.00024238694 0.49575642 0.73267382
14.605313 -8.2384968 0.77655888 -0.51644236 -0.0015434716 0.49638402 0.71631849
14.595883 -8.1735258 0.77554005 -0.47357973 0.00041627418 0.49712497 0.68659389
14.603449 -8.1175518 0.77452302 -0.49115247 -7.3407777e-05 0.49713522 0.69883776
14.601016 -8.0565796 0.77350491 -0.48539242 0.0077640987 0.49740762 0.69503987
