# .PCD v0.7 - Point Cloud Data file format
VERSION 0.7
FIELDS x y z normal_x normal_y normal_z curvature
SIZE 4 4 4 4 4 4 4
TYPE F F F F F F F
COUNT 1 1 1 1 1 1 1
WIDTH 601
HEIGHT 1
VIEWPOINT 0 0 0 1 0 0 0
POINTS 601
DATA ascii
-52.068283 1.4539833 0.15019183 0.080571413 -0.049235165 -0.10930902 0.14444485
-52.110859 1.292063 0.15020233 0.10613823 0.075887904 -0.11698127 0.17523959
-49.990269 -1.0308468 0.1050341 0.10683148 0.11703268 -0.12454641 0.20154756
-49.968529 -1.1887879 0.10510657 0.42326915 0.014129639 -0.062029466 0.42802346
-48.569351 -1.616303 0.10906476 -0.43880409 -0.14116104 0.29970667 0.54981774
-48.71661 -1.7754115 0.10804109 -0.43627918 -0.13690832 0.29241467 0.54276121
-48.462288 -2.151072 0.1093272 0.036526978 -0.063931286 -0.10086242 0.12487857
-48.413094 -2.6099167 0.10952733 -0.074762285 0.16805342 0.12917966 0.22476372
-48.089375 -2.7445657 0.10976154 -0.095349908 0.12868869 -0.098001838 0.18776779
-48.054646 -2.8954966 0.10983761 -0.096767098 0.20482555 0.29204315 0.36960328
-49.202976 -3.1995585 0.10729925 -0.80331326 -0.0016268641 0.25136662 0.84172446
-49.053787 -3.6583037 0.10855467 -0.051034838 0.083965838 -0.10327965 0.14255351
-47.093426 -4.3372159 0.11291625 -0.0045606792 0.04396851 -0.089837141 0.10012364
-47.202198 -5.3290958 0.11221708 0.10425793 0.0150709 -0.060939044 0.12169805
-46.970501 -5.4538398 0.1133933 -0.27878451 0.10144445 0.095876187 0.31177559
-47.198616 -5.5560403 0.11230151 -0.22578315 0.15667172 0.08093369 0.28648615
-48.287037 -5.9940081 0.10984562 0.019417375 0.13946399 -0.090985119 0.16764705
-48.288582 -6.3049383 0.10995722 -0.034843743 0.14709929 0.068802327 0.16609047
-34.576672 -5.0218 0.13922343 0.027103946 -0.7501719 0.30562589 0.81049347
-34.787952 -5.164978 0.13815427 0.32837433 -0.81260371 0.39547035 0.96153593
-47.686722 -7.3821025 0.1116828 -0.0039047599 -0.14538749 -0.15331151 0.21132247
-38.848015 -7.2855 0.13060911 0.042589605 -0.10569936 -0.0050508678 0.11406902
-38.131733 -8.2206135 0.13132669 0.041699052 -0.16118282 -0.057910897 0.17627361
-38.223022 -8.3666725 0.13132501 -0.065645099 0.19094759 0.20864236 0.2903479
-48.809113 -11.972166 0.10965217 -0.052057654 -0.19800511 0.044938914 0.20960803
-62.392799 -15.917461 0.081436336 -0.26539451 -0.22164965 0.13885149 0.37261581
-62.289062 -16.100319 0.08155708 -0.26499337 -0.24247517 0.14771122 0.38837391
-62.033482 -16.348011 0.082784452 -0.28480646 -0.22430107 0.14821959 0.3916564
-61.929749 -16.530867 0.082904793 -0.2685397 -0.2352725 0.13325754 0.38108304
-64.02494 -19.601185 0.077780761 -0.25549155 -0.34147191 0.23893422 0.48884413
-64.224998 -19.773336 0.077727646 -0.20782852 0.15338701 0.24822949 0.35824314
-63.930317 -19.904022 0.077934332 -0.20782852 0.15338701 0.24822949 0.35824314
-60.927132 -19.820137 0.084565133 -0.038173616 0.099869996 -0.12572896 0.16504246
-60.761303 -19.871964 0.084673651 0.024490446 0.074695021 -0.20428221 0.21888432
-60.62059 -20.03879 0.084806077 -0.20288643 0.23416743 0.063979164 0.31637102
-60.76004 -20.510818 0.084884048 -0.028183252 0.25586361 0.060879722 0.26451245
-61.159504 -22.051861 0.08316531 0.16927925 -0.26791528 -0.058842137 0.32232973
-62.334213 -23.477674 0.08098013 -0.33712292 -0.33782828 0.35500741 0.59481937
-68.37468 -27.355619 0.067916662 -0.47760156 0.17233111 0.55352819 0.75112891
-64.387825 -27.549755 0.075144619 -0.11533175 -0.010441899 -0.15471482 0.19325404
-64.189125 -27.704533 0.076300167 -0.11944786 0.069328666 -0.15092285 0.20457752
-64.017776 -28.231256 0.076555237 -0.0041052997 0.042850684 -0.12307467 0.13038561
-20.904234 -12.951756 0.16494611 -0.1740807 0.25855798 -0.1264016 0.33635351
-15.566227 -9.7553825 0.17683963 0.11587344 0.067377537 -0.024036005 0.13617678
-21.231596 -13.291013 0.16386385 -0.21602865 0.23734364 -0.41969785 0.52834332
-20.998068 -13.239812 0.16496754 -0.48352826 0.16218174 -0.14973217 0.53152817
-20.813509 -13.215653 0.16505317 0.046078473 0.11758293 -0.10510606 0.16430537
-17.51026 -11.380944 0.17225362 -0.11464106 -0.041968435 0.021788903 0.12401079
-20.876118 -13.959641 0.16419485 -0.06375055 0.29125655 -0.55999434 0.63441956
-20.759529 -13.977538 0.16425598 -0.034844801 0.26673546 -0.60970652 0.66641128
-20.647942 -13.99844 0.16431522 -0.16608551 0.16496962 -0.50494212 0.55656618
-20.443226 -13.908272 0.16539451 -0.010927945 0.066809177 0.15516628 0.16929105
-20.268673 -13.885122 0.16547421 -0.055771511 0.10397372 0.24671575 0.27347699
-20.253036 -13.969103 0.16550075 -0.10832024 0.1974844 -0.62095988 0.66054869
-20.127457 -13.976994 0.1655634 0.11222377 0.15708108 0.078554302 0.20842125
-20.269728 -14.1691 0.16553755 0.11770976 -0.025440633 -0.037578106 0.12615438
-20.244097 -14.247072 0.16556738 0.5937075 -0.24479251 0.25959098 0.69267559
-20.22246 -14.327046 0.16559565 -0.0074342787 0.10375574 0.18311171 0.2105954
-19.076628 -13.66312 0.16800041 -0.2912516 0.022928834 -0.14637062 0.3267684
-18.709188 -13.492821 0.16813923 0.42769998 -0.28336501 -0.066835344 0.51738763
-18.685556 -13.565796 0.16816631 0.49078193 -0.36704034 -0.010330871 0.61293739
-18.552345 -13.649678 0.16824783 0.11251651 -0.04319343 0.062894225 0.13594602
-18.625662 -13.793729 0.16824387 0.53016859 -0.44265392 -0.11008949 0.69938612
-18.637835 -13.848736 0.16824986 0.45689636 -0.49217069 -0.25909266 0.71980226
-17.405615 -13.202744 0.17069529 0.12997784 -0.060461074 0.28713182 0.3209275
-16.159428 -12.969728 0.17322718 0.11937264 -0.03175199 -0.0094002709 0.12388051
-16.188309 -13.201741 0.17325996 0.37028149 -0.32311392 0.057660371 0.49480876
-15.317293 -13.756019 0.17375953 -0.0062026381 -0.044231463 -0.096041225 0.10591889
-15.365623 -13.886053 0.17376234 -0.017307818 0.023730384 -0.10649177 0.11046804
-15.350819 -13.91804 0.17377485 -0.023502618 -0.003677208 -0.10997153 0.11251503
-15.327555 -14.073017 0.17381388 -0.026775748 -0.02063464 -0.13222776 0.13648044
-15.37089 -14.202046 0.17381862 -0.021865368 0.0089491587 -0.12889113 0.13103856
-15.34998 -14.452022 0.17287375 0.010976553 0.041196011 -0.1433299 0.14953615
-15.779866 -14.897346 0.17176692 -0.10152733 -0.27135009 -0.12054636 0.31379944
-15.546388 -14.773166 0.17284648 -0.047179192 -0.11756697 0.075137548 0.1472872
-7.8362803 -9.6095142 0.18916233 0.029108435 -0.012643069 -0.097081207 0.10213672
-7.8206711 -9.6515074 0.18917309 0.076318517 -0.044113666 -0.093663573 0.12862113
-7.796073 -9.6834946 0.18918578 0.12574893 -0.087932289 -0.10469763 0.18575919
-7.9596906 -10.00562 0.18816742 0.069623858 -0.21256368 -0.007427305 0.22379893
-7.5546045 -9.6043386 0.1892613 0.0093593746 0.023414016 -0.1141049 0.11685779
-7.7106113 -9.9854641 0.18925276 -0.077625677 0.062897027 -0.084385075 0.13077699
-7.6780243 -10.009445 0.18926704 -0.14781588 0.060021639 -0.11875126 0.19888185
-7.219799 -9.4921255 0.19036369 -0.026848553 0.027950943 -0.099431731 0.10671818
-7.5528941 -9.9793663 0.18930677 -0.080934316 0.045446247 -0.20349397 0.22366385
-7.5211091 -9.9703465 0.18931665 -0.052032199 0.043394715 -0.19859317 0.20983255
-7.4129634 -9.95928 0.18935236 -0.03000154 0.036548376 -0.19220378 0.19793476
-7.2722273 -9.9681959 0.18940111 0.039656304 0.047767788 -0.19686183 0.20641939
-7.1333046 -9.9451122 0.18944494 -0.11969474 -0.043908387 -0.11850405 0.17406318
-6.9752002 -9.8590117 0.18948749 -0.09836714 -0.028058201 -0.071926929 0.12504734
-9.0147257 -13.195456 0.18320172 0.099989183 -0.45642108 0.30947638 0.5604406
-8.8114767 -13.036321 0.18425165 -0.50148559 0.24407054 -0.2269927 0.60214943
-8.7359228 -13.015272 0.18427496 -0.10918494 -0.17561224 0.10009021 0.22973694
-8.6397476 -13.048213 0.184312 0.68005693 -0.34013036 0.19646144 0.78534269
-6.303782 -9.7496233 0.19068958 0.14510295 -0.04429999 -0.011381865 0.15214106
-6.2941737 -9.8016224 0.19069798 0.24965164 -0.096141219 -0.077070892 0.27840438
-6.1388903 -9.6655264 0.19073127 0.044500858 0.041678876 -0.17014727 0.18074165
-6.0893297 -9.6574984 0.19174545 -0.035595357 0.037582338 -0.18820536 0.19519407
-6.2395582 -9.9536076 0.19073056 0.027675167 0.020596385 -0.10900449 0.11433331
-5.9112649 -9.51439 0.19178423 0.072990686 0.011941731 -0.086279482 0.11364152
-6.1048341 -9.9495354 0.19077076 -0.046906151 0.0084887743 -0.095434621 0.10667714
-5.8596501 -9.6643782 0.1918145 -0.092963889 -0.028511524 -0.14336313 0.17322868
-5.8094606 -9.7183571 0.19183454 -0.099297926 -0.052184165 -0.10190044 0.15154856
-5.8517947 -9.854393 0.1908358 0.65342605 -0.73032868 -0.12832236 0.98833811
-1.5670954 -9.1517639 0.19564737 -0.082743093 -0.031240493 -0.056624688 0.10501783
-1.5375162 -9.1497583 0.19565026 -0.090497352 -0.024903864 -0.058211364 0.11044698
-1.4497831 -9.1507416 0.19565921 0.10593916 -0.028925896 -0.076696217 0.13394821
-1.4340028 -9.146739 0.19566038 0.12769544 -0.043110549 -0.062795669 0.14868739
-1.4054242 -9.1507339 0.19566353 0.13575451 -0.062287331 -0.044579081 0.15587269
-1.3768399 -9.1517296 0.19566636 0.1182446 -0.061900765 -0.031070383 0.13703598
-1.3472664 -9.1507244 0.19566907 0.097600967 -0.056252271 -0.02401362 0.11518212
-1.3080548 -9.2687244 0.19568366 0.10000719 -0.05257532 -0.010267898 0.11345057
-1.2994126 -9.3997316 0.19569671 0.095379934 -0.044977844 0.01929792 0.10720424
-1.0923723 -9.4116983 0.19571643 -0.10031518 0.017357707 0.0027892552 0.10184402
-1.0312275 -9.3996878 0.19572037 -0.10333106 0.012221813 -0.009032812 0.10444267
0.67697835 -9.3465376 0.19579098 0.11132307 0.018333137 -0.015363438 0.1138638
0.69176883 -9.3515368 0.19579177 0.11285836 0.018727034 -0.015413482 0.11543521
0.72034454 -9.3455362 0.19579124 0.12406456 0.024851412 -0.010266822 0.12694494
0.74992794 -9.356535 0.1957929 0.12861276 0.027713895 -0.0090608597 0.13187645
0.77850097 -9.3485346 0.19579205 0.10028874 0.028636962 0.0019809566 0.10431601
0.95467961 -9.1935377 0.19577187 -0.11889187 -0.05917725 -0.018677276 0.13411213
0.9731949 -9.0715437 0.19575539 -0.12712605 -0.075332433 -0.02899209 0.15058735
1.0007735 -9.0665436 0.1957545 -0.1474798 -0.077423573 -0.021860283 0.16799575
1.0293428 -9.0645437 0.19575398 -0.15910921 -0.072590977 -0.041245002 0.179684
1.0441366 -9.0725441 0.19575493 -0.16130564 -0.060867399 -0.052151009 0.18012239
1.071721 -9.0705442 0.19575438 -0.13843109 -0.032395631 -0.050262045 0.15079428
1.1288685 -9.0705442 0.19575372 0.13900653 -0.030540407 -0.049408168 0.15065423
1.1564472 -9.0655451 0.19575267 0.14941746 -0.051474392 -0.04312972 0.16381502
1.1850276 -9.0685463 0.19575268 0.13735491 -0.057159632 -0.049523883 0.1567999
1.1998034 -9.0665464 0.19575217 0.12063082 -0.055378586 -0.040520348 0.13878213
1.2293953 -9.0815468 0.19575383 0.10988107 -0.05380407 -0.036188204 0.1275865
1.4507389 -9.335536 0.19578655 -0.10227333 0.013783574 -0.0083817877 0.1035378
5.6821442 -9.7278395 0.19262451 -0.19179545 0.11348793 -0.10072365 0.24456136
5.5356216 -9.4039049 0.19356064 -0.030402869 0.031161457 -0.14911754 0.15534288
5.8368902 -9.7858429 0.1926261 -0.057247575 0.028644979 -0.14105032 0.15489678
5.7654004 -9.5938854 0.19258676 0.23560907 -0.15755188 -0.15698691 0.32400483
5.8780251 -9.7178659 0.19260703 -0.19265333 0.089803964 -0.15673293 0.26409331
5.9145937 -9.7098722 0.19260231 -0.18032546 0.085972607 -0.18521775 0.27242279
5.9573908 -9.7468681 0.19260769 -0.0048442204 0.0454261 -0.19452816 0.19982043
5.7158237 -9.2779646 0.19351578 -0.04833927 0.018786043 -0.10577579 0.11780543
5.9506116 -9.4669437 0.19254164 -0.028265692 -0.67117161 0.14286953 0.68679106
6.1482563 -9.7188997 0.19258612 0.061702318 0.12487993 -0.34554023 0.37255901
6.1960559 -9.7618933 0.19259265 0.078632906 0.02831012 -0.25702623 0.27027223
6.2386346 -9.7628994 0.19258955 0.11806557 0.056618482 -0.33649105 0.36106974
6.0160828 -9.342988 0.19250621 0.015532505 0.032754034 -0.24772412 0.2503624
6.4564042 -9.9038868 0.19160648 -0.0098682819 -0.61874038 0.60482836 0.86530596
6.2104068 -9.3910017 0.19250163 -0.031761281 -0.0020807981 -0.26524624 0.26714918
6.5893497 -9.9398928 0.19160494 0.042730052 -0.49970579 0.80799538 0.9509933
6.500874 -9.7389393 0.19156311 -0.0033530123 -0.13028005 0.012900621 0.13096014
6.3379087 -9.3620281 0.19248377 -0.0420551 0.0039104223 -0.11647185 0.12389357
6.7255321 -9.7149744 0.19153936 0.10270553 0.43047452 -0.68548179 0.81593013
6.8632536 -9.7199907 0.1915296 0.15801144 0.15694821 -0.40003455 0.4578515
6.743763 -9.4850464 0.19248056 0.14442234 0.0059843659 -0.10294591 0.17745841
6.788341 -9.4860525 0.19147711 0.16992976 0.0010012686 -0.1016221 0.19800045
6.9589643 -9.6640205 0.19150792 0.082149431 0.086591035 -0.29850355 0.32148236
7.0077572 -9.700016 0.19151303 0.13594757 0.072727591 -0.26619202 0.30761865
7.0503392 -9.6970224 0.19150886 -0.072630681 0.062627852 -0.25609916 0.27346709
7.0969071 -9.6970291 0.19150512 0.031220594 0.066083044 -0.25777826 0.26793903
7.1284895 -9.679039 0.19149804 0.038740918 0.080924422 -0.26367524 0.27852154
7.0620165 -9.5240774 0.19146413 0.053354826 -0.39182407 0.20888659 0.4472208
7.2724357 -9.7170448 0.19149612 0.13314314 0.078186721 -0.20207781 0.25431418
7.2535443 -9.5660896 0.19145913 0.65777135 -0.47918087 -0.25711998 0.85345656
7.3961563 -9.694068 0.19148035 0.35393101 0.22824031 -0.12661996 0.43976519
7.3502631 -9.5101213 0.1914368 0.77276266 -0.49868232 -0.2114872 0.94370174
7.5248799 -9.6760912 0.19146541 -0.44255883 0.67980254 0.17436644 0.82969481
7.4341803 -9.465147 0.1914182 0.74146396 -0.59381384 -0.1145455 0.95681989
7.6778169 -9.7160988 0.1904635 -0.067721732 -0.72959518 0.33115816 0.8040902
13.801268 -12.817664 0.18087617 -0.12687491 0.017487884 -0.013452746 0.12877905
13.854945 -12.62873 0.18182464 0.26573461 -0.42409232 0.53958261 0.73594743
14.252911 -12.790704 0.18084611 0.022515478 0.02853936 0.1031853 0.10940132
14.346479 -12.79371 0.18084213 -0.063997641 -0.035481602 -0.093908727 0.11905247
14.741554 -12.780741 0.17981885 0.68271232 -0.72989428 0.022390725 0.99967152
14.830686 -12.697776 0.17979276 -0.67014807 0.73674488 -0.060948253 0.99780065
14.88825 -12.666791 0.17978178 -0.71018887 0.69824255 -0.056491505 0.9975481
7.0088754 -3.7458851 0.19560774 0.032487839 0.14977771 0.0091521442 0.15353365
6.9576683 -3.7049026 0.19559674 0.031018078 0.11973855 0.0065221153 0.12386274
7.1339378 -3.357192 0.19543745 -0.074041992 -0.077685922 0.014792144 0.1083334
7.1915183 -3.357204 0.19543186 -0.68716741 0.69769061 -0.14988863 0.99067545
7.2900896 -3.375211 0.19542973 -0.59906721 0.76106745 -0.1582188 0.98139614
14.637142 -5.9886084 0.18387143 -0.67426682 0.73511195 -0.048547558 0.99869025
24.287884 -5.8921986 0.16956097 -0.05187428 0.0103634 -0.0866699 0.10153823
15.294956 -3.6159253 0.18310463 0.080504388 0.1617045 0.084839702 0.19956721
15.223536 -3.5489583 0.18308568 0.069752514 0.13655312 0.050611898 0.16147363
15.19512 -3.4929876 0.18306895 0.053379238 0.097492561 0.047287501 0.12079011
15.203699 -3.445015 0.1830537 0.046274751 0.083285049 0.045650616 0.10564909
15.208488 -3.4210289 0.18304609 0.053333491 0.090569645 0.046628557 0.11498497
15.223065 -3.3740556 0.18303101 0.048894227 0.08127442 0.052888811 0.10859744
15.279642 -3.3360801 0.18301769 0.79930317 -0.58592081 -0.044343144 0.99204588
15.315225 -3.2941053 0.18300369 0.78971118 -0.60298145 -0.049494304 0.99482661
30.845135 -5.8594027 0.1594539 -0.24692823 -0.11877662 -0.024702631 0.27512115
30.851707 -5.7604456 0.15942845 -0.25999272 -0.12073761 -0.027859326 0.28801027
30.874283 -5.6644874 0.15940361 0.42174554 -0.8490966 0.023282684 0.9483546
34.56575 -5.66856 0.15336621 0.17341577 -0.049262345 0.088956416 0.20102997
36.383484 -5.6146145 0.15033676 -0.29476449 0.81676137 -0.046215862 0.86955225
37.028061 -5.5946331 0.14932653 0.17217362 0.0098172426 -0.091742314 0.19533762
37.665642 -5.5706525 0.1493156 0.088770308 -0.0045269728 -0.049887694 0.10192861
38.354214 -5.5486722 0.14730498 0.10863438 -0.0051041842 -0.043441426 0.11710952
41.975319 -5.4667535 0.14226058 0.11311737 -0.0053262413 -0.047363203 0.12274844
28.513548 -3.1315668 0.16277853 -0.020190567 0.11347388 0.030742783 0.11928579
28.603498 -2.9146667 0.16272272 -0.061639845 -0.12642738 0.075112142 0.15945277
28.535074 -2.8167105 0.16269831 -0.1278038 -0.21801969 0.0037884861 0.25274643
31.843622 -1.8331863 0.15743838 -0.050836146 -0.14168911 -0.056099087 0.16064627
60.647411 -1.561402 0.11233018 -0.45593664 0.0096710064 0.70341337 0.83830911
60.685989 -1.3714747 0.11228969 -0.45741525 0.0097722616 0.70341331 0.83911532
29.882132 1.334397 -0.030313699 -0.11851129 0.055126548 0.072087504 0.14926644
29.547716 1.413359 -0.027332809 0.045736551 0.036452234 0.35715604 0.36191303
29.498508 1.4573388 -0.027343115 0.060640782 0.030109107 0.42392138 0.42929384
29.5401 1.552296 -0.027364939 0.085061938 -0.057938039 0.26271299 0.28215325
55.87569 9.3144159 -0.2428413 0.12939228 -0.30113077 -0.3119266 0.45246029
55.560291 9.4413643 -0.24086508 -0.044447213 0.18240875 -0.087021023 0.20693275
55.718899 9.6492872 -0.24190232 -0.49059892 0.049725447 0.43831292 0.65975612
55.709499 9.8272209 -0.24193439 0.025009274 0.22195393 -0.079744086 0.23716688
47.76384 9.4402647 -0.17988616 -0.21356606 -0.11710697 0.36756957 0.44094431
35.368305 9.1641369 -0.083885759 -0.050233155 0.12903854 -0.04962616 0.14709544
35.274906 9.2580967 -0.083902933 -0.026516885 0.081449002 -0.095404997 0.12821545
35.255512 9.3720503 -0.083923206 0.043081284 -0.14227867 -0.14092174 0.20483689
35.321312 9.4490204 -0.084936455 0.049128294 -0.16403253 -0.12759818 0.21354522
42.838566 12.541989 -0.14843246 -0.11137846 0.073023021 0.012265034 0.13374585
42.527779 12.741907 -0.14646541 0.096797049 -0.099391997 -0.028665572 0.14166917
42.579395 12.903848 -0.14749131 0.15533322 -0.21793802 -0.063593775 0.27508101
42.143993 12.916833 -0.14449418 -0.10698748 0.014291972 0.039171934 0.11482605
39.975342 12.460957 -0.12742558 -0.019567609 0.087587863 -0.075561307 0.11732022
36.693707 12.269947 -0.10140286 0.25941065 -0.12502882 -0.10643183 0.30700785
36.093906 12.322911 -0.097412705 0.12031476 -0.084546328 -0.071673609 0.16358738
35.905735 12.637785 -0.097462311 0.043656409 -0.14189838 -0.11402191 0.18719515
23.782043 8.4270535 0.0051642209 0.0072326213 -0.030034035 0.2176467 0.2198282
23.68664 8.4780283 0.0051543587 0.082465217 -0.033925176 0.082890816 0.12174693
23.586239 8.5260019 0.0061450088 -0.11124404 0.10376537 -0.14332455 0.20900817
23.50684 8.5809746 0.0061346735 -0.081864268 0.12499845 -0.15274692 0.2136773
23.439442 8.639946 0.0071238009 -0.060849845 0.16014981 -0.1402044 0.22137737
23.342041 8.6879215 0.0071145892 -0.033615798 0.22560847 -0.017849836 0.22879647
23.294836 8.7129078 0.0081098387 -0.0010037422 0.16517532 0.012820292 0.16567515
23.501659 9.0437765 0.0050553372 -0.84720922 0.40800145 0.32433346 0.99469638
23.532873 9.2256994 0.0040250877 -0.7744202 0.5471251 0.29132286 0.99193829
30.387239 12.176791 -0.055404548 -0.099079326 0.021054089 0.03778014 0.10810794
29.998053 12.351709 -0.052431602 -0.11282427 0.0048152506 -0.013328206 0.11371079
29.248625 12.151759 -0.046403691 0.11020308 0.0058865547 0.022862788 0.11270349
25.177958 12.037637 -0.016396888 0.069116607 -0.0015553534 0.073130377 0.10063586
18.312431 12.098243 0.029591735 0.049984675 -0.053997219 -0.082547814 0.11058169
18.063627 12.099226 0.03159222 0.00092671812 -0.062329829 -0.13382086 0.14762753
10.45691 8.5549402 0.096968286 -0.11200227 -0.0049031377 -0.014580354 0.11305369
10.197876 8.480938 0.098973244 -0.10572119 0.011678219 -0.034220785 0.11173367
9.9932604 8.5288906 0.099964648 0.08488965 -0.066975296 -0.010364074 0.10862485
9.966857 8.5618734 0.099960506 0.072573304 -0.068853885 -0.030266417 0.10451697
9.9896727 8.6078568 0.098955609 0.07952863 -0.064325273 0.0072358996 0.1025422
15.834483 13.666535 0.037465226 0.0029733777 -0.065456763 -0.07997784 0.10339189
9.947484 8.7377977 0.098940648 0.072739989 -0.084364414 0.016345393 0.11258611
15.820629 14.321322 0.034418475 0.0024698377 -0.10408705 6.3218176e-05 0.10411637
15.794246 14.388301 0.034414597 -0.01295647 -0.13356099 0.0039196312 0.13424519
15.736289 14.564242 0.03340454 0.035303503 0.080140479 -0.067960039 0.11084855
15.797415 15.090085 0.030370943 0.0089743435 0.061635945 -0.081186093 0.10232649
15.611055 15.24603 0.030367771 0.020728976 0.083838992 -0.16233967 0.18388267
15.878744 15.603936 0.027340157 -0.051446915 0.0038415398 0.18873048 0.19565463
15.87937 15.702908 0.026335012 -0.07982114 0.0014147535 0.21374996 0.22817199
15.869998 15.791881 0.026330823 -0.073719651 -0.043441322 0.17513183 0.19491766
15.870623 15.892852 0.025325805 -0.13707396 -0.032470256 0.24779466 0.28503644
13.190371 13.357471 0.054542352 0.24551098 0.0080434978 0.097792998 0.26439327
12.999559 13.333467 0.056548651 0.37009612 -0.84427834 0.17064738 0.93749535
13.040191 13.459431 0.055540554 -0.20982966 -0.042062223 0.048280649 0.21938263
12.783744 13.280469 0.057557315 0.10942759 0.029444814 0.082683131 0.14027791
12.711347 13.289461 0.057558775 0.25127652 0.012513399 0.11007775 0.27461535
11.679869 12.261709 0.069642268 0.02958414 0.022230297 -0.11373279 0.11960165
11.571454 12.226712 0.070646711 -0.057836384 -0.01101844 0.085281044 0.10363064
12.189487 13.11848 0.061582267 0.3342686 -0.54720438 0.45729578 0.78758341
11.790998 12.773558 0.065611102 -0.40428063 0.21129231 -0.027195364 0.45697579
11.429316 12.505614 0.069634654 -0.079157382 0.044642299 -0.070248798 0.11486392
11.322901 12.469617 0.070639305 -0.077306643 0.033444136 -0.071627744 0.11056836
11.731513 13.244413 0.063590072 0.16179855 -0.0038844929 0.025865138 0.16389896
11.732325 13.2874 0.063588142 0.16448544 -0.02705613 0.027680606 0.16897842
11.790963 13.43836 0.061579667 -0.090314426 0.11302023 -0.00035941601 0.14467341
11.403461 13.085439 0.066607691 -0.079027832 -0.048655033 0.043742046 0.10259667
11.754197 13.568321 0.061575577 -0.4702504 -0.17693803 0.70634043 0.86680984
11.885862 13.806261 0.059561428 0.075729579 -0.3008976 0.41166005 0.51549816
11.718431 13.701282 0.060571685 -0.62014538 -0.16261235 0.33517888 0.72344172
11.596826 13.691278 0.061576638 0.07890448 0.022953719 0.35726893 0.36659768
9.9999132 11.904687 0.08070229 -0.057289481 0.087816 -0.033399791 0.11004217
9.9855299 11.963668 0.08070007 0.068472028 0.040207773 -0.14236628 0.16301301
9.9951496 12.052642 0.079695947 0.048625425 0.023403883 -0.088007316 0.10323498
9.8817291 11.994651 0.080701761 0.13338736 0.007439971 -0.20893475 0.2479945
9.8613396 12.047632 0.080700181 0.11067039 -0.0068157315 -0.12200619 0.16486327
9.9239845 12.200593 0.078692093 0.24974781 -0.048056871 -0.2316623 0.34402159
9.7797384 12.06562 0.080701977 -0.018556163 0.056046605 -0.10989147 0.1247465
9.8603907 12.241576 0.078692585 0.39653158 -0.15002921 -0.26545426 0.50021195
9.7979908 12.243571 0.079694591 0.037985135 0.014368743 -0.12543604 0.13184662
9.7535915 12.26856 0.07969518 -0.11820686 0.027657092 -0.16129853 0.20187865
9.7912292 12.394527 0.078689434 0.11580138 0.034820616 -0.20788971 0.24050066
9.710824 12.373528 0.078693025 -0.0064695328 -0.020295292 -0.2749325 0.27575648
9.6275997 12.30954 0.07969816 -0.066307619 -0.018676221 -0.20117113 0.21263896
9.582202 12.332529 0.079699039 0.032212894 0.010500729 -0.10934962 0.11447827
9.4107571 12.194556 0.081709735 0.026122302 0.018938303 -0.12637194 0.13042584
8.998085 11.975586 0.084731556 -0.05789426 -0.068874568 0.08924146 0.12672603
7.5716963 12.255411 0.089791037 0.018692195 -0.088979974 0.097328097 0.13319007
7.3327651 12.526335 0.08880464 -0.13109455 0.32172939 -0.22208345 0.41233072
7.3724174 12.683301 0.087802671 -0.065461934 -0.32239604 -0.12110204 0.35055694
7.2609811 12.586318 0.088809349 -0.20812044 0.072990954 -0.17151 0.27938765
7.255796 12.622309 0.088809855 -0.39793128 0.32348821 -0.11089 0.52468133
7.1673746 12.562318 0.088815235 -0.022076935 -0.19499433 -0.18614534 0.27048156
7.2839632 13.142199 0.084812239 0.037789941 0.094520189 -0.11793704 0.15579246
8.3830957 15.247804 0.065758675 0.20331442 -0.12375745 0.17132294 0.29326475
9.0151253 16.49757 0.054729737 0.34676775 0.030764312 0.158694 0.3825939
8.1782436 15.10683 0.067773521 0.11929968 -0.21389224 -0.37073737 0.44432926
8.149868 15.167818 0.067777343 -0.20814374 0.10922736 -0.011713937 0.2353543
8.1254911 15.237804 0.066781104 -0.097831562 0.055597633 -0.077049568 0.13637722
8.0297117 15.290795 0.066791043 -0.1531948 0.12281597 -0.21724558 0.29282767
7.9764996 15.248802 0.067794852 -0.044855863 0.086971253 -0.12976164 0.16252424
7.93011 15.277798 0.067799859 -0.1253877 0.25360417 -0.053832799 0.28798458
7.9417553 15.418772 0.066802539 -0.14628625 0.24317122 -0.10192614 0.30153084
7.8263226 15.315791 0.067810573 -0.054487973 0.13491644 0.044156328 0.15205646
7.7839327 15.353785 0.067815654 -0.049538434 0.11940531 0.042960182 0.13622504
8.2337141 16.410599 0.058803689 -0.22434044 0.17449699 0.26198769 0.38654286
7.9888334 16.184641 0.060821272 -0.52472991 0.80125105 -0.2488665 0.9895854
8.1475983 16.628565 0.056820061 -0.074178576 -0.11600164 0.016589269 0.13868685
8.0962105 16.657564 0.056826558 0.072613031 0.51218498 -0.23206903 0.56697631
8.1388893 16.877527 0.055830076 0.049653739 0.5655759 -0.54326689 0.78579926
7.8543301 16.430605 0.059844088 -0.30967152 -0.51721066 0.77493978 0.98180193
7.7180538 16.216642 0.061850715 -0.027363807 -0.074648611 -0.15705839 0.1760356
7.7567348 16.426609 0.059854459 -0.017537802 0.10275261 0.061477005 0.12101693
7.874126 16.942526 0.055861924 -0.053745374 0.075498074 0.13145269 0.16083637
7.5856833 16.813555 0.057889357 -0.0041398704 -0.20751384 0.13572943 0.24799518
-1.5814737 12.148832 0.10907297 -0.07834667 0.023336709 0.073642425 0.11002731
-1.6198759 12.144841 0.10908236 -0.087993734 0.019523799 0.077448308 0.11883736
-1.6572781 12.13485 0.10909074 -0.0777594 0.013135105 0.062557615 0.10066037
-2.9857519 12.129211 0.10746114 0.74584359 -0.66391724 -0.041333005 0.9993884
-7.4084926 13.090188 0.089174077 -0.083842456 -0.07044822 0.068973899 0.12942143
-7.0733719 12.377961 0.095939174 0.14433096 0.3668443 0.099656075 0.40661713
-7.1959181 12.461032 0.095000178 0.14528674 0.19009094 -0.12060928 0.26793543
-7.2813668 12.111053 0.096985221 -0.014139101 0.043138802 0.12753074 0.1353697
-7.5304585 12.273201 0.095109791 0.39531654 -0.79043317 0.46183866 0.99717337
-7.8187518 12.444373 0.092252769 0.1003878 0.0061104298 0.089593723 0.13469255
-7.7353024 12.219311 0.094186693 -0.035934627 -0.033726931 -0.11835181 0.12820278
-8.0544062 12.087483 0.094301514 0.054469615 -0.027584344 -0.12400306 0.13821936
-8.139782 12.134536 0.093344063 -0.021509156 -0.023772657 -0.15898532 0.16218543
-8.132246 12.039526 0.094327644 0.032995943 -0.027005732 -0.092711516 0.10204639
-8.2196102 12.09058 0.093371727 -0.011050701 -0.018449128 -0.14076242 0.14239575
-10.29711 14.262962 0.071567491 -0.29499525 -0.37061012 0.35793954 0.59371269
-10.361979 14.164001 0.071584091 -0.69402671 0.61389542 -0.13910194 0.93695784
-10.314496 14.001965 0.072542198 -0.054191083 -0.067696363 0.063383706 0.10741027
-10.445597 14.139053 0.071618579 -0.12332627 -0.12670559 0.10046209 0.20336249
-10.515997 14.142099 0.070650734 -0.046881527 -0.036866099 0.083733857 0.10280246
-10.601383 14.165155 0.070692256 -0.53153074 0.7664113 -0.32071429 0.98629045
-10.590858 14.057145 0.071673892 -0.060931355 -0.050746441 0.095293611 0.12397058
-10.738342 13.933239 0.071725309 -0.016083896 0.0018657744 0.10591084 0.10714139
-10.805215 13.83828 0.071743891 0.023793578 0.12289537 0.11622897 0.17081739
-10.806602 13.571272 0.073710993 0.77589488 -0.62098414 -0.08327467 0.99728072
-10.851027 13.539301 0.073727317 0.68041575 -0.72390056 -0.068376407 0.99582773
-10.864247 13.512308 0.073729984 -0.038664937 -0.024298906 -0.094677746 0.10511561
-11.171823 13.549516 0.071876258 0.077130966 0.022212714 -0.12133563 0.14548171
-11.231699 13.448554 0.07189142 0.11233892 0.014118284 0.029776916 0.11707272
-11.271894 13.454581 0.071910806 0.1405061 0.0047592819 0.05275932 0.15016045
-11.28435 13.382587 0.071907647 0.13579026 -0.01707381 0.078289852 0.15766995
-11.351747 13.379633 0.071938597 0.13247551 -0.035118461 0.12656964 0.18655547
-11.472105 13.438717 0.071001962 0.18161342 -0.014532089 0.12947397 0.22351314
-11.644425 13.557839 0.070097096 -0.10717014 -0.25842315 0.1437355 0.31452799
-11.581942 13.396792 0.071048103 0.14363632 -0.078322679 0.10331652 0.19349454
-11.825191 13.599965 0.068186976 0.023981391 -0.095494971 0.054731071 0.1126494
-11.629588 13.325823 0.071061686 0.049073298 -0.098786265 0.10144567 0.1498604
-11.770939 13.404923 0.070137702 -0.1390321 -0.019188732 0.011770099 0.14084271
-11.991209 13.577081 0.068262346 -0.11406715 -0.058445334 0.080987036 0.15161158
-11.722899 13.179885 0.071087562 -0.13554469 -0.1194922 0.03838709 0.18472768
-11.845263 13.235972 0.070152044 -0.16723794 -0.052315384 0.026531994 0.1772269
-12.554126 13.963484 0.0625754 0.10469285 0.0084635913 0.035689354 0.11093221
-22.472677 24.437721 -0.044438027 0.033375502 -0.064722806 0.25052625 0.26089531
-22.551119 24.368786 -0.044404183 0.50529248 -0.056106538 0.096977532 0.51756454
-31.823988 34.437576 -0.14676663 0.036909908 -0.064445332 0.10532607 0.12887639
-31.858034 34.042637 -0.14477991 0.0092853606 0.006119296 0.10316484 0.10376246
-31.973482 33.95174 -0.14472662 0.10899284 -0.0045826286 -0.28057292 0.30103421
-31.860106 33.617676 -0.14281213 0.0078081787 0.10084841 0.017370015 0.10263083
-32.202187 33.44997 -0.14364576 -0.1611979 0.0039664507 0.061523348 0.17258511
-34.013332 35.129326 -0.16156441 0.1153952 0.05847764 -0.12765527 0.18174584
-34.1138 35.013424 -0.16152024 0.012182355 -0.025314718 -0.11219859 0.11566231
-34.481686 34.513779 -0.16036348 0.78390259 -0.56846261 -0.21254599 0.99137723
-34.604866 34.529877 -0.16129711 -0.78230745 0.58984351 0.17835674 0.99585712
-32.862701 32.5676 -0.1413655 -0.18997937 0.67485249 -0.55736148 0.89563936
-33.247482 32.540928 -0.14316408 -0.12880604 0.32244635 0.13394962 0.37216279
-33.52182 32.605152 -0.14501403 -0.14019291 0.41282821 -0.63055879 0.76660651
-33.166611 32.053905 -0.14024338 0.22039886 -0.073619738 -0.67025232 0.70938969
-33.408237 31.986115 -0.14112036 0.075514674 0.17834491 -0.10748413 0.2214999
-34.854687 32.044334 -0.14934655 -0.15569371 0.12658167 0.067369521 0.21166508
-34.533443 31.546114 -0.14455394 0.59695232 -0.29295471 -0.13194096 0.67792547
-34.645897 31.451218 -0.14450076 0.77948236 -0.33754337 -0.087812066 0.85395503
-34.698929 31.1033 -0.14349742 -0.016535223 -0.054560602 0.12943971 0.14143872
-34.890129 30.785498 -0.14241782 0.79272556 -0.59761834 -0.088009506 0.99664795
-35.203518 30.477802 -0.14227161 -0.21183839 0.16868572 -0.34994498 0.44248375
-36.418579 30.846811 -0.15059276 0.13413477 0.10664609 -0.03818576 0.17556673
-37.451443 31.528631 -0.15998942 -0.62448347 0.68705571 -0.251854 0.96200603
-37.609875 31.462776 -0.16090842 0.11829551 0.066157699 -0.065507561 0.15053873
-37.677376 31.317852 -0.1598818 -0.78880423 0.41873246 -0.2072538 0.91678953
-36.932384 30.497299 -0.15233973 -0.77841353 0.03022036 0.01947007 0.77924323
-36.704067 30.113144 -0.14848915 -0.85114074 0.21175902 0.12458994 0.88589227
-36.966236 29.847406 -0.14936553 -0.11555347 -0.14047258 0.090958327 0.20336805
-36.603992 29.362146 -0.14459428 0.083193749 0.21384679 -0.25081393 0.3399401
-36.774422 29.311302 -0.14550553 0.0096799135 0.10245232 0.10747323 0.14879742
-36.657024 29.029234 -0.14358811 0.046669424 -0.093106851 0.31995136 0.33647555
-36.646828 28.740259 -0.14161311 -0.044462234 0.27714419 -0.014737129 0.2810747
-36.670345 28.573301 -0.14161159 0.072919875 0.019685984 0.083855659 0.11285662
-36.627903 28.355289 -0.13964926 0.7328335 -0.57084274 -0.040313363 0.92980188
-36.791332 28.29944 -0.14056437 0.088629216 0.23358653 -0.22081138 0.33342984
-37.089684 28.345697 -0.14239937 0.72020948 -0.16886587 -0.52224374 0.90551418
-36.951298 28.055613 -0.14049383 0.091828138 -0.0084925815 0.058178991 0.10903818
-36.917114 27.755619 -0.13853233 -0.12491609 -0.13319801 0.028309941 0.1847896
-37.47084 27.810104 -0.14222762 -0.15906715 -0.041712046 0.07169278 0.17939372
-37.985069 28.011534 -0.14593446 0.30688298 -0.17221946 0.061804406 0.35729048
-38.447136 27.89196 -0.14869033 -0.03866598 -0.026752293 -0.11334755 0.12271272
-38.51516 27.575064 -0.14667366 -0.055867255 -0.17163303 -0.057710394 0.18949813
-38.66061 27.496204 -0.14759928 -0.71272683 0.62119102 -0.13622381 0.95520401
-38.731102 27.364285 -0.14756921 0.22076915 -0.41278595 0.67285407 0.819673
-37.897896 26.326679 -0.1380913 -0.080052406 0.17063305 -0.13950485 0.23449014
-37.954391 26.189749 -0.13806924 0.77765572 0.09980429 -0.54685134 0.95590568
-36.794613 24.872889 -0.12478866 -0.061512917 0.10404781 0.015473627 0.12185737
-36.616756 24.418791 -0.12191553 -0.53825903 0.35487506 -0.15175569 0.66233593
-36.789448 24.285965 -0.12182967 0.04997912 0.15645491 -0.21712884 0.2722517
-36.990913 23.923195 -0.12174283 -0.036930978 0.10569731 0.16000764 0.19529021
-37.098377 23.829306 -0.12168998 0.26157123 -0.33371189 0.24169937 0.48805913
-37.101162 23.585342 -0.12070417 0.30264637 -0.090232521 0.11527562 0.33619222
-37.145191 23.287424 -0.11969917 0.54264629 -0.22735541 -0.012647778 0.58848572
-37.268646 23.203548 -0.12063677 0.61903012 -0.1828362 -0.063799471 0.64861214
-37.461075 23.16173 -0.12153373 0.0033875071 0.097880028 -0.027991265 0.10186012
-37.316669 22.909634 -0.1196292 0.19752513 0.09892752 -0.11966258 0.25124085
-37.455124 22.834772 -0.12055788 -0.32789037 0.37780979 0.44382277 0.66875327
-37.793266 22.639109 -0.1213843 0.022327542 -0.13739829 -0.47996575 0.49974385
-37.813824 22.171196 -0.11940264 -0.021342784 0.0075882329 -0.18909821 0.19045007
-37.968533 22.023361 -0.12032674 0.11192587 0.11689033 -0.16992618 0.23466071
-37.893097 21.820322 -0.11938116 0.076931089 0.043196231 -0.16764361 0.1894431
-39.763733 22.743895 -0.13429096 -0.17609864 0.032127529 0.13973597 0.2270882
-39.958694 22.526108 -0.13419659 -0.042959839 -0.11556235 -0.10031924 0.15894702
-40.117153 22.450264 -0.1351136 -0.44296628 0.72349018 -0.35016024 0.91775233
-39.731121 21.987982 -0.13135552 -0.019299477 -0.12258872 0.018033147 0.12540199
-39.752636 21.838026 -0.13035284 0.73244679 -0.33956128 -0.38535675 0.8945837
-43.203129 23.40196 -0.15834634 -0.27305275 -0.14378838 -0.077146381 0.31809506
-43.359596 23.31212 -0.15926474 -0.16915059 0.0057480931 0.0017050803 0.16925682
-43.128967 23.099943 -0.15640526 0.062218387 -0.32665545 0.12924749 0.35676298
-43.585304 23.171352 -0.16014758 -0.013705924 0.019167513 -0.1223358 0.12458448
-33.350903 17.145857 -0.072191656 0.021465212 0.015911765 0.23003429 0.2315809
-33.442371 17.060955 -0.073147066 0.79885399 -0.12691545 -0.28055051 0.85614473
-45.012642 22.951719 -0.16836633 0.058998406 -0.028382823 -0.11591227 0.1331242
-46.103714 23.332672 -0.17673674 0.2270236 -0.43432277 0.56547034 0.74828649
-46.434208 22.955048 -0.17757384 -0.68382782 0.7153188 -0.064837292 0.99171835
-46.554707 22.834181 -0.17751344 0.0028976202 -0.032997668 -0.1299251 0.13408123
-46.743172 22.746374 -0.17841323 -0.51236248 0.76439553 -0.37972379 0.99549282
-38.448383 18.449368 -0.11028658 -0.011973053 0.11303482 0.07160449 0.13434072
-38.372936 18.265327 -0.10934009 0.0012315512 -0.036763072 0.10497943 0.11123724
-38.411442 18.136385 -0.10832687 0.058998376 0.28624082 0.033984628 0.29422706
-34.806408 16.282333 -0.079446487 0.078341126 0.11712195 0.07806012 0.16108465
-34.884888 16.18642 -0.079409502 0.078341126 0.11712195 0.07806012 0.16108465
-44.232582 19.826544 -0.15298234 0.53421086 -0.79487085 0.17746648 0.97400993
-35.450996 15.585044 -0.081136197 0.063739985 -0.28815329 -0.002278503 0.2951276
-33.952072 14.791773 -0.06802129 -0.41640124 -0.42081976 0.62178659 0.85854399
-33.578472 14.56346 -0.065244116 -0.09559679 -0.53710032 0.26894471 0.60823244
-34.083302 14.532937 -0.068966471 0.10397838 0.11015743 0.047024012 0.15861091
-36.437939 15.416995 -0.086599372 -0.23658735 -0.64904559 0.49120232 0.84765172
-36.604393 15.353162 -0.087511078 -0.23658735 -0.64904559 0.49120232 0.84765172
-33.12817 13.755168 -0.059550431 -0.45900124 0.079351574 0.55540299 0.72488022
-33.508541 13.792518 -0.062336903 0.10133919 -0.084361941 -0.095066339 0.16255514
-48.754986 19.532881 -0.18246813 -0.34228471 0.15403596 0.15971437 0.40791491
-48.73254 19.347895 -0.18149115 -0.33702406 0.15393932 0.15978134 0.40350044
-48.937298 19.164125 -0.18238665 -0.42622563 0.26758909 0.50702274 0.71438384
-35.473415 13.713375 -0.075250842 -0.20858544 -0.21683855 0.058334649 0.30647966
-49.108334 18.878345 -0.18230681 -0.028671145 -0.030590832 -0.10464128 0.11272813
-49.27393 18.414595 -0.18224011 0.035424918 0.052410498 -0.1063993 0.12378448
-38.260323 14.054948 -0.095674478 -0.10071183 0.7989018 -0.55181593 0.97615969
-38.726692 14.091384 -0.098411664 0.67735255 -0.67165136 0.082291603 0.95744133
-38.630245 13.919323 -0.097476892 -0.58268595 0.74724209 -0.15920991 0.96085459
-38.77972 13.83748 -0.098398797 0.072330385 -0.077241004 -0.13151509 0.16880187
-38.651802 13.519416 -0.096491374 0.033766359 0.076752104 -0.086972162 0.12081064
-38.570351 13.355369 -0.095547833 -0.035623223 -0.27343369 0.14078152 0.30960366
-33.59816 11.087048 -0.055481862 0.02953428 0.18007547 -0.018606484 0.1834275
-28.832512 8.505949 -0.016336937 0.1160526 -0.083635956 -0.14527105 0.20387952
-28.891991 8.4260178 -0.016310593 0.07934922 0.0057371557 -0.1015003 0.12896328
-28.925968 8.2410793 -0.016307293 0.037676692 0.13021429 -0.02628991 0.13808133
-28.843729 8.0720263 -0.015367381 -0.019718021 0.092011303 0.051282614 0.10716709
-29.240114 7.8914318 -0.018162064 0.0094755292 0.36926204 -0.23482706 0.43770763
-28.62475 7.4359169 -0.012544017 -0.021617174 -0.14865863 0.081246749 0.17078561
-28.624994 7.3889246 -0.012547973 0.054206789 0.18049598 0.069048449 0.20071089
-28.606985 7.1949377 -0.012574968 -0.0056117773 0.098732427 0.12806991 0.16180694
-28.862911 7.0702014 -0.013443211 -0.017879993 0.0058398545 0.11651661 0.11802507
-30.438555 7.2626777 -0.025546921 -7.9110265e-05 -0.020544589 0.1930069 0.19409728
-29.352043 6.9506874 -0.017180713 0.051853552 -0.18023568 0.24390344 0.30767283
-29.049097 6.6874394 -0.014373035 0.68547916 -0.53984201 0.046936348 0.87379295
-29.613972 6.6259909 -0.018062862 0.12691328 0.18250671 -0.42325607 0.47808093
-31.418856 6.5767345 -0.031057086 -0.13041207 0.2035168 0.24704823 0.34562874
-31.447348 6.4817786 -0.031049291 -0.075373709 0.16549824 0.2132809 0.28028485
-31.475849 6.3848224 -0.031041684 -0.17703146 -0.034293398 0.33695704 0.38217303
-31.556335 6.2999148 -0.032003913 -0.12332842 -0.097504832 0.25152752 0.29661959
-31.046188 5.8455 -0.027329775 0.0075904131 0.1244411 0.00029146671 0.12467272
-30.931707 5.7244105 -0.02640475 0.11563581 -0.1737894 -0.40981656 0.4599174
-30.892218 5.6173902 -0.026436461 0.75001633 -0.58125579 -0.23675926 0.97797632
-31.010695 5.5405183 -0.026376856 -0.64002705 0.66666925 -0.038001046 0.92494678
-31.310896 5.5448079 -0.029207958 0.050477684 -0.025763229 -0.083703339 0.10108407
-31.38339 5.4568934 -0.029175105 0.081594825 0.079930022 -0.06339854 0.13063651
-31.428883 5.3649535 -0.029157784 0.056798637 0.058885694 -0.06053856 0.10177685
-31.998297 5.361506 -0.033838164 0.13111317 -0.17303695 -0.097346872 0.23792617
-31.81983 5.2293558 -0.031950273 0.69683194 0.064376637 -0.42050233 0.81641984
-31.601366 5.0921679 -0.030085409 -0.01963225 0.46834242 -0.30098659 0.55706644
-31.629866 4.996213 -0.030078068 0.58243585 0.40750217 -0.67538428 0.9805271
-31.825094 4.9764061 -0.03197008 0.10441741 -0.16338255 -0.0081546456 0.19407049
-31.580633 4.837193 -0.030120211 -0.078489125 0.039090231 -0.050893128 0.10138392
-31.749121 4.5614052 -0.031050665 0.035841912 0.11083365 0.049558252 0.12658894
-33.282417 4.6808767 -0.042176403 -0.066072151 -0.026568651 -0.10401195 0.12605518
-33.621883 4.6232185 -0.044990297 -0.1431734 0.57721692 -0.64523798 0.8775022
-34.041084 4.6276259 -0.047753632 -0.10193346 -0.088792697 -0.0012576282 0.13518932
-34.125587 4.5317264 -0.047714539 0.71618092 -0.12970732 -0.15208592 0.74355179
-34.112103 4.4217339 -0.047731981 0.32964313 0.094926275 -0.28542602 0.44625512
-34.005627 4.3006525 -0.046802923 0.13681999 0.21781176 -0.13243255 0.28930962
-33.785164 4.165462 -0.044939518 0.13446014 0.091806643 -0.076877922 0.18005055
-33.928173 3.9696386 -0.045876667 -0.027519435 -0.098947182 -0.035439283 0.10864533
-24.049505 2.6002238 0.026418313 -0.090509832 -0.059491634 0.06007592 0.12385637
-34.570415 3.5573447 -0.050551794 -0.50697953 0.75336158 -0.40107405 0.99269444
-35.16539 3.3989582 -0.054230075 0.21598467 0.12489846 -0.15531158 0.2938889
-35.181652 3.3449848 -0.055225853 0.21598467 0.12489846 -0.15531158 0.2938889
-35.092175 3.2269197 -0.054287363 -0.34531948 0.67870158 0.23082876 0.79571557
-35.134686 3.1209815 -0.054273151 0.55065548 0.12138507 -0.018684343 0.56418514
-35.50769 2.9323845 -0.05707965 0.32538131 -0.22418562 0.068888471 0.40109575
-60.840256 2.978379 -0.24169773 0.079104334 0.16742152 0.17500804 0.25478476
-51.946369 2.0478003 -0.17682786 -0.057151198 0.094862327 -0.030714437 0.11492822
-51.806656 1.9606824 -0.17591453 -0.37379935 -0.23088443 0.25791484 0.50946409
-51.872227 1.8017843 -0.17589051 -0.4156242 -0.017987324 0.21871921 0.47000542
-51.882797 1.6398324 -0.17589808 0.0099437833 -0.12188503 -0.034254074 0.12699677
-49.849655 -0.7628454 -0.21298805 0.36098483 -0.041848868 0.16594654 0.39949924
-49.881912 -0.92183995 -0.21394581 0.82620722 -0.22476903 -0.071079805 0.85918093
-50.089169 -1.0840069 -0.21500205 -0.094334364 0.36589563 0.055463456 0.3819094
-49.817303 -1.1567202 -0.21281962 0.81120622 -0.41601825 -0.091727994 0.91626453
-48.361671 -1.8901058 -0.20071389 0.029591382 -0.077837713 -0.063650757 0.10481306
-48.438801 -1.9701635 -0.2017276 0.039483964 -0.059879664 -0.097198017 0.1207974
-48.263878 -2.5758486 -0.19940075 -0.056399256 0.09999752 0.19903874 0.22977555
-48.64539 -2.905149 -0.20249422 0.096294746 0.18344097 0.045632213 0.21214515
-48.437538 -2.9699285 -0.20135204 0.25475571 0.082784392 0.079841197 0.27951449
-48.311813 -3.1157703 -0.20022629 0.14355466 -0.36566576 0.79438317 0.88620764
-48.388077 -3.2748086 -0.20121035 -0.33152908 -0.17715716 0.16483444 0.41044682
-48.893307 -3.4642632 -0.2054265 -0.4537068 -0.054823391 0.28772593 0.54003859
-48.796852 -3.7680972 -0.20425895 0.046512723 -0.076263435 -0.072547927 0.11507713
-47.998585 -5.7788444 -0.19806956 -0.28858811 0.37983829 0.37639263 0.60764432
-48.246826 -5.9630461 -0.20014296 -0.064094186 -0.051065385 0.095696419 0.12599026
-35.802586 -4.9030724 -0.095506735 0.2835983 -0.82484484 0.15789622 0.8864131
-47.430824 -7.470901 -0.19514167 -0.37977201 -0.18090931 0.2111806 0.47069332
-38.774868 -7.2604904 -0.1223586 -0.045298398 0.060565814 0.096776165 0.12282421
-38.605503 -7.4822798 -0.12118804 -0.011169523 0.00063613057 0.12576744 0.12626405
-38.542816 -7.5971951 -0.12111383 -0.011707485 0.0032019615 0.12684447 0.12742384
-38.459137 -7.7070909 -0.1200297 -0.0042733252 -0.0040642321 0.12082291 0.12096675
-38.30862 -7.8669119 -0.11889146 -0.010779172 0.002263844 0.11756928 0.11808408
-38.229946 -7.9778132 -0.11881004 -0.01480782 0.0091354847 0.10731412 0.10871544
-38.142265 -8.0857058 -0.11772472 0.0023237765 -0.024510115 0.13230768 0.13457885
-38.061588 -8.1946049 -0.11764306 0.018022239 -0.078067765 0.13666715 0.15842122
-64.349548 -27.468828 -0.36985981 -0.24164361 -0.43396384 0.42769769 0.65547049
-20.895218 -12.960779 0.0069526951 0.46906942 -0.11966485 0.45110714 0.66169739
-15.533328 -9.7613773 0.057856847 0.11587344 0.067377537 -0.024036005 0.13617678
-20.831779 -13.058715 0.007007265 0.46906942 -0.11966485 0.45110714 0.66169739
-20.644581 -13.125546 0.0081155365 0.13115323 -0.28020683 0.017882317 0.30989808
-20.916723 -13.905712 0.0031625542 -0.16872948 -0.033609122 -0.15642367 0.23252437
-20.584953 -13.970419 0.0053395438 -0.13715822 0.026829958 -0.044759031 0.14675011
-20.481363 -13.996327 0.005395887 0.025193125 0.018956304 0.13267161 0.1363664
-20.107746 -13.792023 0.0085313879 -0.088652417 0.041789621 0.11237508 0.14910997
-19.929195 -13.763871 0.010611694 0.36720178 -0.11646327 0.38743609 0.54635847
-19.880285 -14.010809 0.0096904514 0.086110353 0.1158782 -0.15229949 0.20985205
-20.142488 -14.287012 0.0066253194 0.11817878 0.069808781 0.082989551 0.16039562
-18.856573 -13.479976 0.019065892 0.06998606 0.002491802 0.12498605 0.14326818
-18.742176 -13.534874 0.020132564 0.41524348 -0.73152524 -0.31484485 0.89815569
-18.719543 -13.60885 0.01915938 -0.47698534 -0.018494993 -0.10781978 0.48936915
-18.468044 -13.517643 0.021259569 0.16572912 -0.10525104 0.082820103 0.21308002
-17.339319 -13.088722 0.031702656 0.070638895 -0.027936727 0.15114653 0.16916142
-17.014874 -12.93346 0.033822656 -0.012566149 -0.05104214 0.094478488 0.1081175
-17.040216 -13.036476 0.033832066 0.084847793 0.003659457 0.089370027 0.12328643
-16.323278 -12.869891 0.039131619 0.077417903 -0.044029862 0.052976519 0.10362756
-16.114771 -12.791724 0.041212238 0.071216747 -0.06502673 0.10192312 0.14031614
-16.078156 -12.845693 0.041239873 0.10007305 -0.078607649 0.088389389 0.15494019
-16.065525 -12.918679 0.040260196 0.17257035 -0.14038846 0.076021373 0.23509295
-16.114859 -13.041713 0.039261945 0.18896742 -0.12923148 0.072229713 0.24005541
-15.543212 -13.039249 0.043522127 0.024696499 -0.045901746 -0.11067596 0.12233583
-15.542394 -13.080247 0.043530405 0.026433855 -0.041395396 -0.093564525 0.10567236
-15.457809 -13.093178 0.043571133 0.062157959 -0.086879224 -0.057839397 0.12147842
-15.449179 -13.170169 0.043589782 0.049426228 -0.070617557 -0.056797028 0.10322642
-15.484516 -13.283194 0.042595476 0.048803926 -0.082883373 -0.039168991 0.10385416
-15.47923 -13.924167 0.039719012 -0.015530407 0.048934381 -0.17082547 0.1783735
-15.424992 -14.053119 0.039767116 -0.0076480806 -0.04514771 -0.24212262 0.24641463
-15.42417 -14.096117 0.03877547 0.0035327375 -0.0036543086 -0.24038109 0.24043483
-15.399548 -14.163095 0.038798764 0.018431664 -0.033873864 -0.22211061 0.22543356
-15.467859 -14.314144 0.037796564 -0.0049918294 0.040439274 -0.3139599 0.3165929
-15.463223 -14.400137 0.036814481 0.029169053 0.038991168 -0.28013891 0.28433952
-15.393632 -14.427082 0.037850019 0.03166917 0.10792968 -0.13685414 0.1771463
-15.466296 -14.67613 0.035863787 0.030449659 0.062371705 -0.07390447 0.10138679
-15.73728 -14.974335 0.032799743 -0.48629084 -0.22144733 0.19317205 0.56818408
-15.405312 -15.132069 0.03397302 -0.063754201 -0.1263351 0.06003885 0.15371993
-7.8023386 -9.7405167 0.10819055 0.13471723 -0.086566329 -0.097331516 0.18739232
-7.7884865 -9.9105196 0.1072163 0.14063364 -0.17936216 -0.036012441 0.23074986
-7.7061262 -9.9034681 0.10824437 0.22706449 -0.22009434 -0.13362443 0.34330058
-7.6985173 -9.9584675 0.1072537 0.2070145 -0.17081086 -0.11805902 0.2932052
-7.1562362 -9.8041267 0.11142113 -0.16634467 -0.026006877 -0.10982827 0.20102029
-7.1885819 -9.9101543 0.11042248 -0.15374705 -0.048903853 -0.085458487 0.18257299
-7.229733 -9.9971867 0.10941871 0.054094017 0.04083845 -0.079582922 0.10453412
-7.0902462 -9.8760939 0.11145137 -0.21622731 -0.095870614 -0.13538954 0.27253577
-7.0656524 -9.908082 0.11146317 -0.1976855 -0.096827716 -0.12665826 0.25396353
-6.9001913 -9.7489719 0.11249977 -0.046994179 0.01094225 -0.14951774 0.1571106
-8.6731396 -12.970247 0.084290765 0.16524522 -0.039660685 -0.10430241 0.19939394
-8.6205587 -12.980215 0.084309965 0.16524522 -0.039660685 -0.10430241 0.19939394
-6.3450532 -9.8706694 0.11468959 0.10123156 -0.027962238 -0.043060794 0.11350748
-6.2834921 -9.8446331 0.11570577 0.21455261 -0.072501421 -0.078457847 0.23967668
-6.3038468 -9.9416533 0.11470971 0.10465473 -0.059802622 0.0058872402 0.12067985
-6.2940474 -9.9606495 0.1147147 0.089674503 -0.060733378 0.047584414 0.11829766
-6.0488205 -9.8545084 0.11677775 -0.099281132 -0.022788733 -0.05666016 0.1165609
-5.8143992 -9.7213717 0.11783341 -0.11666481 -0.058249682 -0.051772512 0.14030002
-5.8367562 -9.8253937 0.11783729 -0.1003783 -0.060169369 -0.11280803 0.16254786
-1.5146557 -9.0727568 0.13664569 -0.092252165 -0.025356054 -0.03646376 0.10238651
-1.399344 -9.0777359 0.13665746 0.097120538 -0.056608647 -0.027479466 0.11572406
