# .PCD v0.7 - Point Cloud Data file format
VERSION 0.7
FIELDS x y z normal_x normal_y normal_z curvature
SIZE 4 4 4 4 4 4 4
TYPE F F F F F F F
COUNT 1 1 1 1 1 1 1
WIDTH 70
HEIGHT 1
VIEWPOINT 0 0 0 1 0 0 0
POINTS 70
DATA ascii
-36.857914 27.662424 0.68742943 -0.23227108 -0.17025536 0.15935074 0.32913432
-37.674023 27.729137 0.6948778 0.22143339 -0.72617704 0.26603204 0.80444944
-37.205376 30.213474 0.37478858 -0.11609704 0.31093481 -0.21439187 0.39512384
-37.246956 29.668577 0.37377438 -0.16862753 -0.05328998 0.032395124 0.17979018
-37.357418 29.566687 0.3738274 -0.096529961 0.21668471 0.060645103 0.24484308
-37.470615 29.561785 0.3738884 -0.095849946 0.21676886 0.060643703 0.24464998
-37.285263 29.223665 0.37276533 0.32843632 0.30669624 -0.57275927 0.72800148
-36.972523 28.603466 0.3705543 0.10873924 -0.17204314 -0.051196665 0.20986702
-37.290657 28.386774 0.37171257 -0.2002486 0.045363896 0.044991344 0.21019422
-37.172791 27.928728 0.37061816 0.14387965 0.16375695 -0.84950864 0.87703055
-37.00642 27.621622 0.3695074 0.47904646 -0.14767036 -0.33332431 0.60199428
-37.226818 27.605818 0.36962622 0.048157174 -0.7314989 0.54440713 0.91312039
-37.482197 27.615044 0.37076581 0.025401101 0.010175347 -0.15627089 0.15864849
-38.093369 27.88555 0.3731164 -0.10129761 0.047019303 -0.13196133 0.17287514
-38.050659 27.762527 0.37208515 -0.072205245 0.021391749 -0.079747245 0.10968512
-38.262066 27.73472 0.3731986 0.18872288 0.28113553 -0.19653061 0.39150706
-37.062054 30.282383 0.15071574 0.095221281 -0.093116239 -0.042229623 0.13971782
-36.943668 29.991314 0.15063204 0.12813258 0.35307851 -0.4613114 0.59488702
-36.485016 29.238003 0.151333 0.59874773 8.4534287e-05 -0.51866937 0.79215956
-36.346634 28.938917 0.15223788 -0.26263312 -0.17363068 0.88917315 0.94326705
-36.412125 28.805992 0.1522643 -0.009708643 0.15542907 0.09840709 0.18421836
-36.43338 28.729019 0.1522706 0.57338482 0.21165034 -0.66160631 0.90071583
-36.816669 28.847342 0.15148614 0.20700341 -0.1788671 0.12799215 0.30203617
-37.196972 28.959661 0.15169981 -0.20214346 0.13147672 -0.69381654 0.73452669
-36.67382 28.364277 0.15237629 -0.0050696433 -0.15461163 -0.18605077 0.24196146
-36.886223 28.345465 0.15249024 -0.27435735 0.61113644 -0.52549613 0.85141402
-36.82132 27.929459 0.15242726 0.021380544 0.029815033 -0.1943568 0.19778936
-38.439819 27.95089 0.15130952 0.078642614 -0.05197534 0.1591716 0.18499106
-38.584003 27.964018 0.15138903 -0.0044292808 -0.090077497 0.30265564 0.31580693
-38.586063 27.598066 0.15136659 0.24962483 0.20533261 -0.14847296 0.35569403
-36.418579 30.846811 -0.15059276 0.13413477 0.10664609 -0.03818576 0.17556673
-36.932384 30.497299 -0.15233973 -0.77841353 0.03022036 0.01947007 0.77924323
-36.704067 30.113144 -0.14848915 -0.85114074 0.21175902 0.12458994 0.88589227
-36.966236 29.847406 -0.14936553 -0.11555347 -0.14047258 0.090958327 0.20336805
-36.603992 29.362146 -0.14459428 0.083193749 0.21384679 -0.25081393 0.3399401
-36.774422 29.311302 -0.14550553 0.0096799135 0.10245232 0.10747323 0.14879742
-36.657024 29.029234 -0.14358811 0.046669424 -0.093106851 0.31995136 0.33647555
-36.646828 28.740259 -0.14161311 -0.044462234 0.27714419 -0.014737129 0.2810747
-36.670345 28.573301 -0.14161159 0.072919875 0.019685984 0.083855659 0.11285662
-36.627903 28.355289 -0.13964926 0.7328335 -0.57084274 -0.040313363 0.92980188
-36.791332 28.29944 -0.14056437 0.088629216 0.23358653 -0.22081138 0.33342984
-37.089684 28.345697 -0.14239937 0.72020948 -0.16886587 -0.52224374 0.90551418
-36.951298 28.055613 -0.14049383 0.091828138 -0.0084925815 0.058178991 0.10903818
-36.917114 27.755619 -0.13853233 -0.12491609 -0.13319801 0.028309941 0.1847896
-37.47084 27.810104 -0.14222762 -0.15906715 -0.041712046 0.07169278 0.17939372
-37.985069 28.011534 -0.14593446 0.30688298 -0.17221946 0.061804406 0.35729048
-38.447136 27.89196 -0.14869033 -0.03866598 -0.026752293 -0.11334755 0.12271272
-38.51516 27.575064 -0.14667366 -0.055867255 -0.17163303 -0.057710394 0.18949813
-38.66061 27.496204 -0.14759928 -0.71272683 0.62119102 -0.13622381 0.95520401
-38.731102 27.364285 -0.14756921 0.22076915 -0.41278595 0.67285407 0.819673
-36.30381 31.107737 -0.44363651 0.38554472 -0.18110079 0.24859005 0.49319291
-36.869453 30.118343 -0.44039953 -0.074419677 0.096425883 -0.10996003 0.16409585
-36.737072 29.817263 -0.43649149 -0.029454738 0.16140166 0.13791889 0.21433549
-36.884773 29.652412 -0.43642282 -0.17968151 -0.34864169 0.35640138 0.52996075
-36.854855 29.248434 -0.43346629 -0.50001991 0.35536063 -0.03634125 0.61450934
-36.782436 29.002399 -0.43052205 -0.81997752 0.090325117 0.54289907 0.98755312
-36.571091 28.649258 -0.4246603 0.33264551 0.46182039 -0.35731995 0.67201835
-36.832199 28.762472 -0.42851123 -0.68618321 0.16362779 0.69564176 0.99072647
-36.84972 28.589508 -0.42751333 -0.023563012 0.19828388 -0.28632623 0.34907654
-37.350479 28.60795 -0.43224037 0.18267189 -0.25349823 0.11433285 0.33271965
-37.39299 28.455008 -0.43222743 0.23329674 -0.05223652 0.06400317 0.24749227
-37.388519 28.267025 -0.4302423 0.23261164 -0.031571899 0.063509285 0.24318387
-37.294106 28.011974 -0.42731047 0.7388714 -0.19004744 -0.54729515 0.93892545
-37.410835 27.825102 -0.42625934 0.042413577 0.1550658 -0.15899855 0.22610806
-37.706192 27.863359 -0.43009606 -0.049975634 -0.02115503 0.2002098 0.20743448
-37.905609 27.828541 -0.4319897 0.039843492 -0.8721621 0.41660365 0.96737421
-38.363876 27.982927 -0.4377299 -0.25594357 -0.088253647 0.37632644 0.46359184
-38.505325 27.902065 -0.43865797 0.70916641 -0.59988302 -0.30636436 0.97807759
-38.644779 27.819201 -0.43958721 0.78860873 -0.56667483 -0.20759472 0.99303555
-38.350746 27.333004 -0.43277907 -0.36378315 -0.011973027 0.15110075 0.39409766
