# .PCD v0.7 - Point Cloud Data file format
VERSION 0.7
FIELDS x y z normal_x normal_y normal_z curvature
SIZE 4 4 4 4 4 4 4
TYPE F F F F F F F
COUNT 1 1 1 1 1 1 1
WIDTH 57
HEIGHT 1
VIEWPOINT 0 0 0 1 0 0 0
POINTS 57
DATA ascii
-26.416082 14.453665 1.2278135 -0.13732611 0.065449655 -0.037610382 0.15670563
-26.411066 14.236686 1.2247936 -0.098984271 0.093214184 -0.04005152 0.14174235
-26.165398 13.840514 1.2106285 0.045231044 -0.17466168 -0.074375451 0.19515188
-26.41275 13.657758 1.2147485 -0.21822572 0.31887275 0.20189157 0.43596157
-26.84078 13.617146 1.2269787 0.32011035 0.26917094 -0.84157139 0.93976915
-27.028187 13.607315 1.2330803 -0.10688834 0.077497616 -0.07223621 0.15049608
-26.589579 12.919007 1.208786 -0.0277959 0.14492723 -0.448623 0.47227016
-27.03537 12.929408 1.2230306 -0.15520027 0.03843689 -0.17739141 0.23881422
-27.044851 12.831429 1.222028 -0.18756601 -0.047984272 -0.050855562 0.20017439
-27.226265 12.814595 1.227126 -0.014373571 -0.054687023 0.084832773 0.10195033
-26.298845 11.924869 1.1855466 0.020848751 -0.035737902 0.13552409 0.14169915
-25.989557 13.962379 1.0215425 0.050760299 0.1001277 -0.13976896 0.17926942
-26.028025 13.879424 1.0215569 0.10158569 0.1199962 -0.18212454 0.24059944
-26.084486 13.805483 1.0215816 0.054570109 -0.069886118 -0.070206791 0.11309712
-27.039515 13.995316 1.0481168 -0.0042063594 -0.082194261 0.09838178 0.12826754
-27.068745 13.957347 1.0481298 0.03117606 0.0088341665 0.32113972 0.32277036
-27.130209 13.882411 1.0491575 0.060925305 0.039665036 0.36878321 0.37588063
-27.175676 13.799462 1.0491759 0.010071188 -0.081785619 0.061471775 0.10280611
-27.398071 13.805661 1.0542978 -0.37561983 -0.12449658 0.40561974 0.56667191
-27.196648 13.597507 1.0471715 -0.54350221 0.1831041 0.73814476 0.9347617
-26.833303 13.307215 1.0339501 0.02348429 -0.39070231 0.72687751 0.82556081
-26.610889 13.092042 1.0258114 0.17694883 -0.37021977 -0.35105237 0.54001045
-26.252293 12.861747 1.0135972 0.039163146 0.16204867 -0.68763727 0.70755816
-26.957468 13.109352 1.0350022 0.52753061 -0.82740104 0.020498332 0.98147911
-27.038927 13.044435 1.0360416 0.5680449 -0.77455485 0.066582069 0.96283096
-27.135374 12.987529 1.0380899 -0.560193 0.7285744 0.015732929 0.91917592
-27.142859 12.887548 1.0370861 -0.48572388 0.82623136 0.024703197 0.95874721
-27.284288 12.851681 1.0401608 0.0073810965 -0.049599171 0.10401678 0.11547315
-26.171473 11.970784 1.0014807 0.020848751 -0.035737902 0.13552409 0.14169915
-26.109261 13.878524 0.88560086 0.11394194 0.091650471 -0.19700861 0.24534662
-27.190258 14.351435 0.9132269 0.045160651 -0.16793302 -0.04682475 0.18009314
-27.125267 14.101408 0.90917194 0.018939763 0.18416102 -0.050978296 0.19202287
-27.150238 13.899455 0.90716976 -0.072916776 -0.15940484 0.11479114 0.20953225
-27.129492 13.835444 0.90615338 -0.058615595 -0.20471236 0.21734233 0.30427065
-27.167963 13.74849 0.90616757 -0.76951039 0.49480179 0.38320613 0.99187803
-27.505306 13.813786 0.91335702 -0.18588693 -0.040531933 0.21694517 0.28855154
-27.475815 13.690775 0.9113313 0.148399 0.047684342 -0.035795521 0.15992929
-26.873053 13.178295 0.89396155 0.35841158 -0.88830751 0.18266785 0.97514957
-26.923519 13.099351 0.89398289 0.48862773 -0.8364352 0.10309816 0.97417152
-26.932003 13.000372 0.89297968 0.5463149 -0.79799575 0.068489715 0.96950912
-26.787308 12.878255 0.8888908 0.15259326 0.030618429 -0.031754237 0.15884118
-26.165739 11.927812 0.86647403 -0.0018508136 -0.087205857 0.10374202 0.13553853
-26.227198 11.857877 0.86750191 -0.0018508136 -0.087205857 0.10374202 0.13553853
-26.257675 11.772915 0.8665117 -0.0018508136 -0.087205857 0.10374202 0.13553853
-26.360119 11.721015 0.86856353 -0.0018508136 -0.087205857 0.10374202 0.13553853
-26.389595 11.636052 0.86857271 -0.84911525 0.37646276 0.33011734 0.98574764
-27.115942 13.97346 0.67815679 0.028882772 0.11366195 -0.085909627 0.1453744
-27.08045 13.847445 0.67712754 0.047404557 0.10506438 -0.070224091 0.13497089
-27.326078 13.81367 0.68025905 -0.71637177 0.68425596 0.0023830775 0.99065661
-27.256598 13.671625 0.67820996 0.083263129 0.058884501 0.016160369 0.10325353
-27.434011 13.654787 0.68030566 0.3194215 0.1250577 -0.11362037 0.36135733
-26.852736 13.048338 0.66794008 0.22960599 0.51025277 -0.22135478 0.60172647
-26.916201 12.975405 0.66796899 0.65188718 -0.33577412 0.26057512 0.77820343
-26.868464 12.900372 0.66693693 0.65491414 -0.308824 0.1114818 0.73260701
-27.219862 14.051576 0.52521962 -0.17525691 -0.23766422 0.27136779 0.4010483
-27.113401 13.888499 0.52314878 -0.84621602 0.47538579 0.21210745 0.99351037
-27.358522 13.746738 0.52527153 0.0039407015 -0.14608315 0.29748154 0.33143789
