# .PCD v0.7 - Point Cloud Data file format
VERSION 0.7
FIELDS x y z normal_x normal_y normal_z curvature
SIZE 4 4 4 4 4 4 4
TYPE F F F F F F F
COUNT 1 1 1 1 1 1 1
WIDTH 75
HEIGHT 1
VIEWPOINT 0 0 0 1 0 0 0
POINTS 75
DATA ascii
9.6482019 11.814661 0.4387162 0.039123707 0.11622943 0.023219466 0.12481622
9.6176271 11.890636 0.43971395 -0.045419686 0.15974945 0.016579002 0.16690625
9.6572647 12.015602 0.44070777 -0.07827419 -0.34171742 0.26182562 0.43755034
9.6138649 12.040591 0.44070822 -0.023765597 -0.26044893 0.21727157 0.34000793
9.5354595 12.020592 0.43971151 -0.026527137 -0.18334609 0.16540256 0.24834952
9.5580864 12.127562 0.4417069 -0.11127973 -0.15954456 0.12785828 0.23277754
9.3938303 11.961597 0.43771833 0.015542895 -0.20421119 0.12609032 0.2405048
9.2714062 11.884609 0.43572512 0.32384807 -0.26376978 0.12878439 0.43707833
9.2440186 11.926595 0.43572453 0.3391965 -0.70693588 0.1161221 0.79265183
10.118494 11.745727 0.36270669 0.024773866 -0.078034267 -0.12789831 0.15185872
10.095914 11.832698 0.36270306 0.064531356 -0.0066024922 -0.1595321 0.17221609
10.050517 11.855687 0.36270317 0.089665174 0.012393598 -0.20355803 0.22277638
10.001121 11.873677 0.36270368 0.026984453 -0.18774015 -0.037330449 0.19330826
9.897706 11.827682 0.36170858 -0.073012769 -0.071167402 0.11722305 0.15536058
9.7922935 11.77769 0.36071372 0.19331248 0.12957296 -0.054341316 0.23898084
9.8079605 12.065604 0.36270112 -0.12623043 0.11418843 -0.10013282 0.19748344
9.582509 11.866646 0.359716 -0.10551124 -0.041038912 0.0028950572 0.11324838
9.7571793 12.160573 0.36369902 -0.11243351 -0.025342792 0.042001814 0.12266908
9.7057819 12.175565 0.36270019 -0.12732948 -0.031463146 0.03529048 0.13582395
9.2603054 11.887613 0.35772538 0.17866077 0.32782 -0.20384039 0.42536634
9.2899342 12.003582 0.35872033 -0.050939605 -0.088703781 0.072159439 0.12518062
9.7215672 12.237556 0.2536974 -0.12950407 0.032194465 -0.075745463 0.15344432
9.9518814 12.47151 0.17968105 -0.14849345 0.11627869 0.30853444 0.36161381
9.8594742 12.436513 0.17968555 0.73954016 -0.58860219 0.086724073 0.94915396
9.8038883 12.487495 0.17968583 0.73163104 -0.62694728 0.014727518 0.96362013
9.9999132 11.904687 0.08070229 -0.057289481 0.087816 -0.033399791 0.11004217
9.9855299 11.963668 0.08070007 0.068472028 0.040207773 -0.14236628 0.16301301
9.9951496 12.052642 0.079695947 0.048625425 0.023403883 -0.088007316 0.10323498
9.8817291 11.994651 0.080701761 0.13338736 0.007439971 -0.20893475 0.2479945
9.8613396 12.047632 0.080700181 0.11067039 -0.0068157315 -0.12200619 0.16486327
9.9239845 12.200593 0.078692093 0.24974781 -0.048056871 -0.2316623 0.34402159
9.7797384 12.06562 0.080701977 -0.018556163 0.056046605 -0.10989147 0.1247465
9.8603907 12.241576 0.078692585 0.39653158 -0.15002921 -0.26545426 0.50021195
9.7979908 12.243571 0.079694591 0.037985135 0.014368743 -0.12543604 0.13184662
9.7535915 12.26856 0.07969518 -0.11820686 0.027657092 -0.16129853 0.20187865
9.7912292 12.394527 0.078689434 0.11580138 0.034820616 -0.20788971 0.24050066
9.710824 12.373528 0.078693025 -0.0064695328 -0.020295292 -0.2749325 0.27575648
9.6275997 12.30954 0.07969816 -0.066307619 -0.018676221 -0.20117113 0.21263896
9.582202 12.332529 0.079699039 0.032212894 0.010500729 -0.10934962 0.11447827
9.4107571 12.194556 0.081709735 0.026122302 0.018938303 -0.12637194 0.13042584
8.998085 11.975586 0.084731556 -0.05789426 -0.068874568 0.08924146 0.12672603
10.261709 11.864727 -0.017302776 -0.090991557 -0.36217129 0.14112163 0.3992027
10.218314 11.890715 -0.017302921 0.12692484 -0.26785475 0.12328136 0.32102084
10.120903 11.853718 -0.016298607 0.22144394 0.035734415 -0.19348885 0.29623014
10.055312 11.890701 -0.016298585 0.097303495 0.053681791 -0.12817144 0.16963969
9.9963846 12.207603 -0.019310491 0.06372492 -0.24538483 0.10534686 0.2745406
9.8097515 12.098619 -0.016300263 0.13023122 -0.019876122 -0.25949758 0.29102272
9.7093363 12.053626 -0.014295324 0.12837119 -0.020133793 -0.21566656 0.25178683
9.6649427 12.076615 -0.014294783 0.042112652 0.011699647 -0.20546776 0.21006513
9.6295519 12.110602 -0.014294895 -0.035787985 0.005594492 -0.13807301 0.14274535
9.7151957 12.297556 -0.017304521 -0.034820922 0.0084465146 -0.099390917 0.10565224
9.4343405 12.10159 -0.013287978 0.029441297 0.0030904412 -0.18157192 0.18396929
9.415144 12.116585 -0.013287825 0.028715923 0.01073882 -0.13674688 0.14014149
9.2593288 12.074585 -0.011280946 0.055052638 0.028982252 -0.13174173 0.14569367
9.1295233 12.063578 -0.010275923 0.5741154 -0.7827965 0.15863951 0.98363882
8.9140644 11.859618 -0.0052618426 -0.07839638 -0.030325562 -0.16186492 0.18238938
9.0995646 12.223531 -0.011279491 0.49356657 -0.7731337 0.29688454 0.96409756
9.8137245 12.105626 -0.12530066 0.075354218 -0.057001024 0.12157407 0.15397282
9.7885275 12.113621 -0.12530018 -0.063538224 -0.10500783 0.23329788 0.26361269
9.2998781 12.012612 -0.1172803 0.52493942 -0.82058322 0.1353837 0.98348713
9.048399 11.769661 -0.11026349 -0.016330719 0.00023517013 -0.12883911 0.12987018
9.1230488 11.942618 -0.11427185 0.0089400411 0.0079258382 -0.11366051 0.11428673
9.057641 11.936615 -0.11326935 0.63622952 -0.75814593 -0.077873014 0.99279273
8.9198284 11.91261 -0.11126368 -0.091524392 -0.050012439 -0.059135679 0.11989573
9.2104359 11.776678 -0.18926899 0.012269557 0.0011148751 -0.17321184 0.17364945
9.0820112 11.689692 -0.18526173 0.010984093 0.018399537 -0.10824446 0.11034517
9.3077021 12.056605 -0.19628206 0.5929234 -0.79602277 0.045358256 0.99361348
8.9894066 11.685686 -0.18425862 -0.062409595 -0.0096339881 -0.15805861 0.17020662
9.4102602 12.076614 -0.29028627 -0.078649789 -0.054142416 0.038994923 0.10313968
9.1851568 11.792684 -0.37726876 0.026976869 -0.046594352 0.14780338 0.15730424
8.9422083 12.063589 -0.38026893 0.20695092 -0.034643203 0.1474745 0.25647137
9.0878429 11.924644 -0.46927002 0.03276974 -0.047066152 0.11684041 0.13015667
8.9588442 11.951628 -0.46626627 0.10344006 0.07657066 -0.063645601 0.14357463
8.9244528 11.984615 -0.46626598 0.1871891 -0.053831488 0.081295401 0.21106049
8.8590469 11.976612 -0.46426332 0.096918501 -0.15383986 0.12510473 0.2207059
