# .PCD v0.7 - Point Cloud Data file format
VERSION 0.7
FIELDS x y z normal_x normal_y normal_z curvature
SIZE 4 4 4 4 4 4 4
TYPE F F F F F F F
COUNT 1 1 1 1 1 1 1
WIDTH 93
HEIGHT 1
VIEWPOINT 0 0 0 1 0 0 0
POINTS 93
DATA ascii
-0.75536555 11.556592 0.59979683 -0.033013631 -0.014749408 -0.093263112 0.10002726
-1.3325942 11.597699 0.60193825 -0.16831604 0.048452407 0.040191635 0.17970335
-1.3699856 11.605707 0.60294849 -0.23375183 0.074361086 0.064610839 0.25366127
-1.4054061 11.582713 0.60195422 -0.23965904 0.080695391 0.06487114 0.26106793
-1.4885753 12.017744 0.61703199 -0.18302998 0.16462493 -0.22065459 0.33059007
-1.9802086 13.88692 0.68240809 -0.647834 0.74775827 -0.12869328 0.99769396
-2.0186324 13.83993 0.68041271 -0.6390003 0.76167655 -0.10016164 0.99925214
-2.1014662 13.787951 0.67942929 -0.63304257 0.76627207 -0.10241966 0.99920243
-2.1196799 13.759955 0.6784308 -0.63108796 0.76609534 -0.11196688 0.9988547
-2.1591001 13.723965 0.67743719 -0.63120949 0.76484531 -0.11796272 0.9986636
-3.1120424 12.058176 0.62848914 0.023942739 0.062300652 -0.21492103 0.22504593
-3.1362386 12.073185 0.62849855 0.67282641 -0.71992028 -0.10107277 0.9905535
-3.1586852 11.998187 0.62649471 0.035022438 0.028327063 0.11303953 0.12168373
-3.2105322 11.573178 0.61244982 -0.3952809 0.80650043 -0.42554605 0.99387091
-1.3397363 11.570709 0.52693653 -0.11700398 0.03389442 0.040049113 0.12822907
-1.3771436 11.569717 0.52694559 -0.18064323 0.057338923 0.062843025 0.19967218
-1.3963286 11.583721 0.52795213 -0.21312539 0.073875457 0.068345368 0.23569283
-1.4824747 12.054753 0.54103535 -0.23352714 0.17422417 -0.17618509 0.34048519
-2.8148918 12.1351 0.54941136 0.028155476 0.0028574169 -0.10948785 0.11308619
-3.052561 12.029166 0.54746705 0.064846963 0.10057583 -0.15304875 0.19427957
-3.0919688 12.024179 0.5474782 0.015489757 0.059324026 -0.14045364 0.15325305
-3.1550725 11.546169 0.53542924 -0.52836084 0.79585874 -0.28816989 0.99779665
-1.2547419 11.629701 0.47292343 -0.093692452 0.028617114 0.027972633 0.10188073
-1.2911489 11.620708 0.47293115 -0.11733158 0.037503809 0.02960426 0.1266872
-1.3275501 11.615715 0.4729394 -0.17361872 0.053193092 0.030289607 0.18409352
-1.3659555 11.621723 0.47294962 -0.24325219 0.083490878 0.04079736 0.26039734
-1.3841552 11.619727 0.47295386 -0.26113334 0.091403753 0.054114714 0.28191075
-1.467343 12.049757 0.48303083 -0.20806408 0.17684096 -0.13062587 0.3026987
-2.6703334 12.186069 0.49037623 0.026802935 -0.015557826 -0.10949954 0.11380067
-2.6905401 12.184073 0.49138185 0.017385742 -0.014315933 -0.099252813 0.10177588
-3.1873014 11.584189 0.4804444 -0.52413177 0.8154735 -0.22421065 0.99497819
-3.2257056 11.581201 0.48045561 0.08376883 0.053520948 0.031956375 0.10441704
-1.3600203 11.557731 0.38293979 -0.12611684 0.02342996 -0.02352497 0.13041413
-1.3994116 11.57974 0.38395238 -0.1765981 0.040969521 -0.0014731996 0.18129413
-2.5331728 12.112038 0.39432654 0.0051961215 -0.028120458 -0.11025914 0.11390714
-2.6139791 12.115062 0.3953501 0.014725702 -0.020597279 -0.098766193 0.10196007
-3.0314548 12.01018 0.39445809 0.084614247 0.09091422 -0.067448609 0.14133039
-3.0718675 12.007192 0.3944698 -0.77532995 0.61082834 0.13368124 0.99605143
-3.1197526 11.547179 0.38841876 -0.53993046 0.82117194 -0.15892717 0.99554312
-1.3245717 11.609733 0.32393786 -0.11504969 0.023331851 -0.013509023 0.11816641
-1.3791831 11.596743 0.32394961 -0.096884526 0.025259495 -0.0039364202 0.10020054
-1.424542 11.676755 0.32497132 -0.075841367 0.067070335 0.035416011 0.10725967
-2.0268676 13.804973 0.34741044 0.66613215 -0.74112296 0.076991186 0.99946135
-2.06828 13.781984 0.34741908 0.65721703 -0.74933922 0.075526685 0.99957377
-1.9604032 13.742965 0.2493837 0.68547142 -0.72540987 0.018321104 0.9982115
-2.0008149 13.715975 0.24939148 0.68022716 -0.73024547 0.012438432 0.99805915
-1.9277885 13.949971 0.18440159 0.71219611 -0.70167458 -0.01764092 0.99994087
-1.946005 13.916975 0.18440239 0.71219611 -0.70167458 -0.01764092 0.99994087
-2.0268388 13.850995 0.18441646 0.66570657 -0.74250889 -0.0042725066 0.99724764
-1.5814737 12.148832 0.10907297 -0.07834667 0.023336709 0.073642425 0.11002731
-1.6198759 12.144841 0.10908236 -0.087993734 0.019523799 0.077448308 0.11883736
-1.6572781 12.13485 0.10909074 -0.0777594 0.013135105 0.062557615 0.10066037
-2.9857519 12.129211 0.10746114 0.74584359 -0.66391724 -0.041333005 0.9993884
-1.6077553 12.155849 0.033080671 -0.069123276 0.015333295 0.077094898 0.10467455
-1.5519532 11.71483 -0.042991724 -0.068354368 0.073495239 0.0098039061 0.10084635
-1.6197968 11.648843 -0.041983243 -0.098647505 0.080373794 0.017658498 0.12846439
-3.1115031 11.645242 -0.047569718 -0.67319334 0.73082376 -0.10460537 0.99911702
-1.4812137 11.715822 -0.10400942 -0.092502221 0.065676361 -0.01161262 0.11403903
-1.4994084 11.715827 -0.10400485 -0.098160625 0.075717479 -0.015018813 0.12487677
-1.5368116 11.713835 -0.10399569 -0.091439545 0.082347572 -0.017631132 0.12431078
-3.046773 12.732297 -0.13543642 0.040784895 0.17878869 -0.044768438 0.18876711
-1.5500137 11.690845 -0.17299539 -0.084015489 0.058146477 -0.021916436 0.10449854
-1.621967 12.15688 -0.18891552 -0.22352353 0.085481465 0.11509345 0.26554915
-1.6544012 12.098885 -0.18691477 -0.18444511 0.11665028 0.15045854 0.26507556
-3.0933633 11.644254 -0.18057531 -0.62728131 0.76832187 -0.12318087 0.9994868
-1.4277081 11.701829 -0.25102463 -0.13224147 0.052618027 -0.029531538 0.14535671
-1.4995198 11.676843 -0.25000995 -0.11913706 0.057708383 -0.018323451 0.13363999
-1.5379336 11.675852 -0.25000042 -0.14053883 0.080645829 -0.03575395 0.16593148
-1.6473124 12.121895 -0.26791355 -0.26739642 0.14044282 0.17633757 0.34974271
-3.0438733 11.64625 -0.2585898 -0.65858924 0.74314439 -0.09488374 0.99750006
-3.0842676 11.653263 -0.25957677 -0.60442019 0.78741336 -0.098344341 0.99750447
-1.4479959 11.671842 -0.32002351 -0.069982171 0.022951603 -0.0745342 0.10478371
-1.4843937 11.667849 -0.32001495 -0.097715229 0.040530831 -0.09533345 0.14240605
-1.5227993 11.671858 -0.32000476 -0.12552902 0.063213348 -0.11257367 0.18007301
-1.6149461 12.153897 -0.34191772 -0.23469561 0.10035315 0.12923177 0.28610075
-1.6493658 12.115904 -0.33991382 -0.28849626 0.15628678 0.1741721 0.37147218
-3.044147 12.993342 -0.38840115 0.66472924 -0.74464548 0.052138504 0.99954003
-3.089541 13.004359 -0.38938579 0.66304684 -0.74602807 0.052650191 0.99948037
-3.0175076 11.685253 -0.33159214 -0.061278075 -0.07156679 0.066568866 0.11536127
-3.0459328 11.641259 -0.32958993 -0.63896179 0.75657094 -0.037290204 0.99099058
-3.0671301 11.648267 -0.33058262 -0.62417066 0.76453948 -0.038584992 0.98772389
-1.5967991 12.142901 -0.41192389 -0.25310192 0.091985524 0.098802164 0.2868515
-2.3607526 13.481165 -0.48253733 0.618644 -0.7742219 0.1255195 0.99894696
-2.4011629 13.461176 -0.48252833 0.61958814 -0.77335322 0.12692495 0.99903685
-2.4213719 13.449181 -0.48152411 0.61527634 -0.77747631 0.11824825 0.99850738
-2.4587967 13.40919 -0.47951859 0.61251402 -0.78108454 0.11167628 0.99886841
-2.4962091 13.376201 -0.47851214 0.61258221 -0.77921438 0.12143394 0.99858809
-2.6680887 13.240247 -0.47348008 0.6154319 -0.77843833 0.11594726 0.9990828
-3.0220571 12.957344 -0.46241283 0.66635305 -0.74135017 0.072714716 0.99945682
-1.589799 12.113909 -0.48792949 -0.2903468 0.18433228 0.27572665 0.44080022
-2.9878612 11.817273 -0.48458222 0.024284929 0.071080998 0.068064556 0.10136592
-2.9903622 11.656262 -0.47560433 -0.088562757 -0.090718806 0.14584862 0.19324875
-3.0177925 11.607267 -0.47260314 0.053894877 0.035085142 -0.11865887 0.134965
