# .PCD v0.7 - Point Cloud Data file format
VERSION 0.7
FIELDS x y z normal_x normal_y normal_z curvature
SIZE 4 4 4 4 4 4 4
TYPE F F F F F F F
COUNT 1 1 1 1 1 1 1
WIDTH 54
HEIGHT 1
VIEWPOINT 0 0 0 1 0 0 0
POINTS 54
DATA ascii
8.1635885 15.6367 0.47478756 -0.2866382 0.15103424 0.16174132 0.36212298
8.1392183 15.709686 0.47579184 0.13189 -0.51726556 0.30255014 0.61359203
7.9273624 15.545717 0.47180745 -0.70082659 0.70163351 -0.038502671 0.99243635
7.8889813 15.591709 0.47281247 -0.62367189 0.71702003 -0.11315128 0.9570201
7.8746176 15.684693 0.47381669 -0.60725874 0.74026704 -0.22719425 0.98406082
7.921473 15.837667 0.47581679 -0.036181897 -0.24611685 0.39447743 0.46636367
8.1764402 15.707694 0.38478827 0.07981956 -0.65224361 0.72021139 0.97493452
8.0730181 15.630708 0.38379598 0.19021046 -0.77510434 0.5575856 0.97358537
8.1246948 15.850669 0.38579726 -0.34388435 -0.091015726 0.5892114 0.68826622
7.9033728 15.484735 0.38180801 -0.2440647 -0.076747119 0.18931386 0.31827259
7.9160213 15.630709 0.38281101 0.37347943 -0.81070256 0.44681492 0.99818289
7.823606 15.570721 0.38181821 -0.38943118 0.81235456 -0.43201602 0.99910676
7.6571331 15.365758 0.37882823 -0.035712272 -0.12579495 0.038591519 0.13634163
7.638763 15.450744 0.37983263 -0.25773996 -0.21726865 0.33051008 0.4720937
7.8293157 15.336772 0.25881088 -0.16748759 -0.24761528 0.22652128 0.37506974
7.7367206 15.334773 0.25881961 -0.13659629 -0.23553903 0.15567186 0.31364137
7.7603841 15.499743 0.25982222 0.37693697 -0.80424476 0.44280836 0.99245673
7.6089215 15.322776 0.25883159 -0.060461789 -0.062254779 0.14983638 0.17315376
7.6656017 15.557734 0.25983334 -0.20331152 -0.16353892 0.13961083 0.2959252
8.2714834 15.224799 0.1777679 -0.14316396 0.050650597 -0.33658868 0.36926055
7.8835421 15.372772 0.17780676 -0.62915939 0.33369225 -0.30983225 0.77665186
7.7961302 15.321782 0.17781359 -0.15377137 -0.33323419 0.15202731 0.39724422
7.7777557 15.406766 0.17781779 -0.6064598 0.47370011 -0.36178058 0.85033548
7.7575655 15.426764 0.17782032 -0.60394216 0.49532184 -0.36465204 0.86200982
7.7041745 15.441761 0.17782594 -0.62375617 0.5541411 -0.35045385 0.90496522
8.3830957 15.247804 0.065758675 0.20331442 -0.12375745 0.17132294 0.29326475
8.1782436 15.10683 0.067773521 0.11929968 -0.21389224 -0.37073737 0.44432926
8.149868 15.167818 0.067777343 -0.20814374 0.10922736 -0.011713937 0.2353543
8.1254911 15.237804 0.066781104 -0.097831562 0.055597633 -0.077049568 0.13637722
8.0297117 15.290795 0.066791043 -0.1531948 0.12281597 -0.21724558 0.29282767
7.9764996 15.248802 0.067794852 -0.044855863 0.086971253 -0.12976164 0.16252424
7.93011 15.277798 0.067799859 -0.1253877 0.25360417 -0.053832799 0.28798458
7.9417553 15.418772 0.066802539 -0.14628625 0.24317122 -0.10192614 0.30153084
7.8263226 15.315791 0.067810573 -0.054487973 0.13491644 0.044156328 0.15205646
7.7839327 15.353785 0.067815654 -0.049538434 0.11940531 0.042960182 0.13622504
8.0506735 15.339795 -0.040209644 -0.18737851 0.17606243 -0.2114976 0.3329263
8.0234785 15.346794 -0.040206969 -0.15058686 0.19110423 -0.24111824 0.34254232
7.9850945 15.391786 -0.040202241 -0.068650246 0.12448886 -0.10797048 0.17851599
7.8352809 15.341795 -0.039189555 -0.052014023 0.13069564 -0.012852296 0.14125152
8.1376381 15.201829 -0.16022082 -0.1781387 0.17148176 -0.29181704 0.38248736
8.0071926 15.076852 -0.15621208 0.11692414 -0.08626575 -0.38092712 0.40769902
8.0078344 15.191832 -0.15820941 -0.34833342 0.5549053 -0.28485286 0.71442086
7.9614444 15.220826 -0.15920448 0.116358 -0.040828377 -0.073756203 0.14368758
7.9160547 15.251821 -0.15919952 -0.18795227 0.21020119 -0.23838305 0.3692385
7.875493 15.349804 -0.16019313 0.090599954 -0.042073131 -0.22295275 0.24430807
7.8331046 15.387797 -0.16018806 0.058878899 -0.086708382 -0.1162703 0.15653706
7.9353952 15.176841 -0.24620321 -0.52116627 0.5902307 -0.37699398 0.87298971
7.9532251 15.268825 -0.24820252 -0.18350759 0.25785899 -0.22014667 0.38552672
7.8944645 15.393803 -0.25019369 0.10306695 -0.11407529 -0.15829664 0.22066671
7.9331999 15.22884 -0.34920168 0.02717486 -0.55841863 0.048154265 0.56114942
7.7937508 15.080867 -0.3431927 0.058826834 0.011705548 -0.32353133 0.32904428
7.763546 15.082867 -0.34318987 -0.0078043938 -0.012060501 -0.12833335 0.12913486
8.0269041 15.189856 -0.46321118 0.039273009 -0.36866355 0.00090765953 0.37075058
7.7216325 14.959897 -0.45018926 -0.15743941 -0.18454345 0.28748816 0.37615544
