# .PCD v0.7 - Point Cloud Data file format
VERSION 0.7
FIELDS x y z normal_x normal_y normal_z curvature
SIZE 4 4 4 4 4 4 4
TYPE F F F F F F F
COUNT 1 1 1 1 1 1 1
WIDTH 58
HEIGHT 1
VIEWPOINT 0 0 0 1 0 0 0
POINTS 58
DATA ascii
14.677749 -11.540179 0.06249303 -0.4773531 -0.12228461 0.50021249 0.70216238
14.662299 -11.45321 0.063470297 -0.47555408 -0.096122138 0.51438916 0.70709783
14.670859 -11.386236 0.063451663 -0.49170542 -0.087406985 0.5020169 0.70812088
14.65564 -11.338252 0.063439429 -0.51172501 -0.075941406 0.50489038 0.72287196
14.652196 -11.26228 0.064418919 -0.49703711 -0.054995384 0.50398654 0.70998085
14.650754 -11.188309 0.064398803 -0.4989495 -0.033956472 0.50201499 0.70860618
14.663319 -11.126332 0.064381167 -0.72924852 -0.019926473 0.4420296 0.85298926
14.654875 -11.047362 0.065359965 -0.47192258 0.002872569 0.51306063 0.69710141
14.66144 -10.981388 0.065341488 -0.50035185 0.010725827 0.51230866 0.71618932
14.647214 -10.934403 0.065329313 -0.53802329 0.003615384 0.5142644 0.74427819
14.642769 -10.859432 0.066308878 -0.49213427 0.011737282 0.52805644 0.72192627
14.650331 -10.794458 0.066290513 -0.48600033 -0.00012898725 0.51628047 0.70904291
14.652897 -10.726485 0.066271551 -0.46309382 -0.0056736581 0.50434476 0.68472743
14.644451 -10.649513 0.067250647 -0.52004868 -0.0089886095 0.51688689 0.73328269
14.648014 -10.582541 0.067231826 -0.50212514 -0.0074030561 0.51053762 0.7161237
14.655577 -10.518566 0.067213587 -0.4826242 -0.010739455 0.50271147 0.69696504
14.635355 -10.469584 0.068200998 -0.47989711 -0.0085900826 0.51005256 0.70037752
14.633917 -10.399611 0.068181507 -0.49808839 -0.0074933772 0.50875759 0.71202701
14.637474 -10.332638 0.068162546 -0.51320827 -0.010570789 0.50417429 0.71950412
14.636038 -10.263665 0.069143258 -0.42130607 -0.011101403 0.49060315 0.64677161
14.635603 -10.195692 0.069124155 -0.50146633 -0.010753656 0.48825175 0.69998133
14.642167 -10.132717 0.069106042 -0.49932355 -0.011054593 0.48820832 0.69842219
14.623941 -10.085734 0.069093764 -0.55965155 -0.023356404 0.48470259 0.74073744
14.626508 -10.020761 0.070075251 -0.49600911 -0.014691851 0.48822853 0.69613791
14.630068 -9.9557886 0.070056647 -0.50639117 -0.0107277 0.48839122 0.70361429
14.623631 -9.8848171 0.070036843 -0.44696391 -0.012741348 0.48469555 0.65944588
14.625191 -9.8188438 0.071017988 -0.56360447 -0.0097915176 0.48360327 0.74270988
14.633758 -9.7588692 0.071000427 -0.50134665 -0.011449934 0.48797551 0.69971395
14.622316 -9.6848984 0.070979923 -0.51330477 -0.012996006 0.48784482 0.70826775
14.621096 -9.6509132 0.070970267 -0.53738701 -0.02104523 0.48626491 0.72503883
14.611663 -9.5799417 0.071950443 -0.49292019 -0.01426206 0.48760843 0.69349527
14.611229 -9.5149689 0.071931817 -0.503708 -0.010154556 0.48794901 0.70136946
14.623793 -9.4579935 0.071914747 -0.49549636 -0.010979492 0.48821375 0.69569379
14.623356 -9.3930206 0.071896061 -0.64429629 -0.025368376 0.46805093 0.79676402
14.613916 -9.3220491 0.072876096 -0.47874504 -0.012860628 0.4889684 0.68443578
14.622486 -9.2640753 0.07285887 -0.50331181 -0.010503188 0.48950738 0.70217562
14.613266 -9.2260904 0.072848372 -0.49473974 -0.01314489 0.4890573 0.69578534
14.607831 -9.1591187 0.073829256 -0.49446005 -0.01344544 0.48933932 0.69579053
14.612394 -9.0981445 0.0738113 -0.49965039 -0.0094766794 0.48936298 0.69944012
14.60796 -9.0321732 0.073792346 -0.50010943 -0.010004575 0.48904216 0.69955111
14.608529 -8.9702005 0.073774248 -0.61378276 -0.013707402 0.47478843 0.77610648
14.60909 -8.9072275 0.074755833 -0.50876081 -0.015060803 0.48697737 0.70442271
14.593876 -8.8672428 0.074744962 -0.50035185 -0.0092503875 0.48702657 0.6983068
14.595437 -8.8052711 0.074726738 -0.45319191 -0.010317174 0.48475435 0.66368377
14.597004 -8.744297 0.074708767 -0.50924546 -0.012651418 0.48641405 0.70433629
14.593569 -8.6803255 0.075690165 -0.47108012 -0.013428387 0.48579207 0.67682397
14.601137 -8.6233511 0.075672999 -0.50726438 -0.007464156 0.48655108 0.70292586
14.603703 -8.5633774 0.075655185 -0.501531 -0.0075633554 0.48660433 0.69883788
14.607271 -8.5044041 0.075637594 -0.49884084 -0.0076906444 0.48639953 0.69676811
14.591053 -8.4644203 0.075626649 -0.4974061 -0.010781467 0.48647729 0.69583708
14.586615 -8.4004488 0.076607957 -0.0549393 -0.0015275329 -0.2418668 0.24803267
14.590186 -8.3424759 0.076590583 -0.49707019 -0.0068683974 0.48595631 0.69518304
14.592752 -8.2835026 0.07657294 -0.47106367 -0.0082760714 0.48538995 0.67644131
14.599323 -8.2275286 0.076555952 -0.46894759 -0.010472821 0.48533255 0.67495865
14.592888 -8.1635571 0.077537253 -0.50652111 -0.0089305295 0.48598993 0.7020182
14.592456 -8.1035833 0.077519402 -0.50162852 -0.00518928 0.485493 0.69811285
14.582234 -8.0675983 0.077509195 -0.50178409 -0.004476082 0.48543733 0.69818103
14.582804 -8.008626 0.077491544 -0.49714363 -0.0062974328 0.48502702 0.69458091
