# .PCD v0.7 - Point Cloud Data file format
VERSION 0.7
FIELDS x y z normal_x normal_y normal_z curvature
SIZE 4 4 4 4 4 4 4
TYPE F F F F F F F
COUNT 1 1 1 1 1 1 1
WIDTH 65
HEIGHT 1
VIEWPOINT 0 0 0 1 0 0 0
POINTS 65
DATA ascii
7.8517337 15.966618 0.81082803 -0.065759309 -0.16723332 0.021631837 0.18099505
7.8293667 16.047606 0.81283301 0.067091525 0.30777255 -0.22739117 0.38849962
7.8552094 16.163584 0.81683439 0.061373532 0.1220201 -0.071787 0.15430161
7.7787986 16.13859 0.81484145 0.022940934 0.10385163 -0.07030198 0.12749046
7.754426 16.219578 0.81684697 0.13620225 0.069990516 -0.10349897 0.18482901
7.6970339 16.231577 0.81685352 0.18084681 0.096278176 -0.16198531 0.26117867
7.6019149 16.429548 0.82187152 0.40437093 -0.066437304 -0.74216127 0.8477813
7.5707173 16.430548 0.82087505 0.40089887 -0.033280022 -0.73907042 0.84145856
7.5613585 16.547531 0.8248809 -0.37081248 -0.089073673 -0.12183896 0.40035078
8.1418257 16.579519 0.71581894 -0.098893508 -0.11727383 -0.0050874352 0.15348928
8.1324663 16.693501 0.71882403 -0.14139476 -0.10683358 -0.053428411 0.18509589
7.9274421 16.608519 0.71384293 -0.03069935 0.11991861 -0.047981888 0.13275988
7.6779037 16.226587 0.70185536 -0.015412718 -0.048887908 0.37275985 0.37626782
7.7616186 16.532537 0.70985806 0.037290365 -0.11641058 0.070147276 0.14093485
7.6796837 16.699514 0.71387386 0.24446143 0.036682814 -0.061891198 0.25482845
7.5422277 16.542542 0.70788276 -0.07995069 0.11877899 0.51337576 0.53296834
7.5098534 16.610533 0.70888937 0.024308652 0.13778923 0.15404701 0.20810397
8.1414814 16.331568 0.62281054 0.31442481 -0.10142608 -0.55858779 0.6489765
8.1601391 16.498539 0.62681425 -0.066580504 -0.11312751 -0.010663301 0.13169853
8.0747252 16.458548 0.62482172 -0.29483742 -0.16118717 0.050102085 0.3397361
7.9859595 16.541536 0.62583411 -0.15148583 0.041190043 0.012189329 0.15745842
7.7982984 16.35457 0.62084728 -0.27817339 0.034535274 0.44891417 0.52924198
7.648488 16.306581 0.61786157 -0.049807191 0.088350773 -0.01527493 0.10256676
7.671154 16.488554 0.62186623 -0.11023171 -0.052980185 0.040516704 0.12883918
7.5843897 16.575542 0.62287945 0.83106518 -0.41292217 -0.19307019 0.94786608
7.6432581 16.772511 0.62788099 -0.029545188 -0.023104697 0.11989082 0.12562068
7.9887609 16.612537 0.4868364 0.1624698 -0.047101498 0.25131616 0.30294356
7.9965901 16.695522 0.48783869 0.28846562 0.088242322 -0.082441926 0.31272319
7.7440543 16.308592 0.48085138 -0.12458116 -0.62199569 0.053987481 0.63664252
7.7757258 16.507559 0.48385552 -0.62299097 0.64716488 0.14525411 0.90996641
7.6692934 16.419577 0.48186371 -0.024795651 -0.15164828 0.0520739 0.16224585
8.0291481 16.552553 0.39182988 -0.52761179 0.79618269 0.088327982 0.95920956
7.9947701 16.615543 0.39183587 0.15474889 0.055435985 0.14008617 0.21597338
7.9380283 16.767521 0.39284784 0.28194338 0.079464138 -0.11807543 0.31582975
7.8346028 16.687536 0.39185607 0.068997234 -0.062296361 0.16120152 0.18608434
7.787219 16.723534 0.39186278 0.11294019 0.065637231 0.034199089 0.13503078
7.9190793 16.316605 0.26183307 0.043787107 0.0058703423 -0.095167883 0.10492234
7.730413 16.12764 0.26084617 -0.30051243 0.15033433 -0.083405346 0.34621465
7.7290606 16.254618 0.26185095 -0.21426663 0.53025961 -0.10804822 0.58203077
7.6076198 16.133642 0.26085943 -0.53529549 0.097144544 -0.14512551 0.56306279
7.6639633 16.516581 0.26186815 -0.0040469766 -0.090721779 -0.05822143 0.10787286
7.6686172 16.662558 0.26287353 -0.045403361 0.12766419 -0.1286886 0.18686992
7.8842268 16.176636 0.17583179 -0.24282746 -0.024454951 0.070873179 0.2541382
7.8048124 16.146641 0.17683902 -0.4621129 0.20903742 0.031597599 0.50817651
7.7914505 16.248627 0.17584409 0.13411856 0.03191489 0.096929714 0.16852809
7.7592545 16.246626 0.17584744 -0.53752881 0.31953061 -0.0057717487 0.62535614
7.6958561 16.246628 0.17685421 -0.15823853 0.18230942 0.0040409788 0.24143837
7.697505 16.382607 0.1758592 0.013337016 -0.0086783692 0.11139233 0.11252307
7.6724358 16.736553 0.1758762 7.9363585e-05 -0.099504337 -0.034002721 0.10515372
7.7142892 16.897528 0.1758782 -0.006106019 0.079596713 -0.071310475 0.10704253
7.598856 16.786549 0.17588669 -0.04673478 -0.084363237 -0.096325643 0.13630819
7.9888334 16.184641 0.060821272 -0.52472991 0.80125105 -0.2488665 0.9895854
7.8543301 16.430605 0.059844088 -0.30967152 -0.51721066 0.77493978 0.98180193
7.7180538 16.216642 0.061850715 -0.027363807 -0.074648611 -0.15705839 0.1760356
7.7567348 16.426609 0.059854459 -0.017537802 0.10275261 0.061477005 0.12101693
7.5856833 16.813555 0.057889357 -0.0041398704 -0.20751384 0.13572943 0.24799518
7.9957767 16.212645 -0.0511785 -0.4839718 0.79182994 -0.36141288 0.99591297
7.93538 16.220646 -0.051171988 -0.45245308 0.82259107 -0.31393939 0.98991299
7.9810605 16.441608 -0.054169003 -0.5505687 0.80059975 -0.1846095 0.98902303
7.7331805 16.196655 -0.049151629 0.053452492 -0.24545468 0.062278919 0.25881234
7.5335789 16.716581 -0.054108839 -0.0033623576 0.10434573 -0.013610259 0.10528331
7.7784038 16.209661 -0.17515594 -0.31878728 0.21730563 -0.13569334 0.40897402
8.0995216 16.160669 -0.27019078 -0.44085762 0.78065515 -0.27639791 0.93817574
8.0019217 16.158672 -0.26918092 -0.437859 0.63561314 -0.52212173 0.93184531
7.9475336 16.17667 -0.26917475 -0.084146008 -0.071141005 -0.029534221 0.11407832
