# .PCD v0.7 - Point Cloud Data file format
VERSION 0.7
FIELDS x y z normal_x normal_y normal_z curvature
SIZE 4 4 4 4 4 4 4
TYPE F F F F F F F
COUNT 1 1 1 1 1 1 1
WIDTH 57
HEIGHT 1
VIEWPOINT 0 0 0 1 0 0 0
POINTS 57
DATA ascii
14.606011 -9.7858381 0.47700962 -0.012464553 -0.017894153 0.10331932 0.10559568
14.602576 -9.717865 0.47699043 -0.02556774 0.057120465 0.13455589 0.14839725
14.589355 -9.6758814 0.47597912 -0.014943898 0.073592231 0.080300577 0.10994235
14.582916 -9.6059103 0.47495946 -0.028467089 -0.053490922 0.15320258 0.16475037
14.601482 -9.5529337 0.47494325 -0.020685583 -0.010996911 0.13488001 0.13689938
14.585051 -9.4779644 0.47392261 -0.030883282 0.011687584 0.16279827 0.16611338
14.596611 -9.4199896 0.47390527 -0.019924164 -0.031368483 0.12974755 0.13496438
14.590178 -9.3520184 0.47288606 -0.034252435 -0.010277172 0.17306174 0.17671791
14.57252 -9.2440615 0.47185582 -0.02828297 0.04462846 0.14765647 0.15682493
14.586088 -9.1890869 0.47183913 -0.019465268 -0.079048567 0.11137073 0.13795294
14.589655 -9.1281137 0.47182125 -0.025154561 0.02145154 0.14428236 0.14802134
14.578222 -9.0581427 0.4708015 -0.01265195 -0.0064384085 0.10315022 0.10412249
14.589782 -9.0011683 0.47078428 -0.039324701 -0.027123574 0.18488021 0.19095239
14.584354 -8.9361963 0.46976563 -0.016594619 0.019695975 0.11653487 0.11934693
14.566132 -8.8932133 0.46875405 -0.021140784 -0.029301587 0.13476357 0.13952324
14.583697 -8.8412371 0.4687379 -0.036631733 0.024114057 0.17652088 0.1818873
14.566267 -8.769268 0.46771777 -0.025198281 0.01090135 0.1461906 0.14874637
14.5774 -8.6523199 0.46768281 -0.026697725 -0.077368125 0.13565631 0.15843368
14.577531 -8.5293751 0.46664655 -0.016941488 0.045959137 0.10661305 0.11732689
14.571316 -8.4953899 0.46563685 -0.023732811 0.051449753 0.1295436 0.1413926
14.564879 -8.430419 0.46561798 -0.031113237 0.028801331 0.15952384 0.16506183
14.568016 -8.3114719 0.46458259 -0.038850933 -0.068904057 0.17156553 0.18892299
14.571578 -8.2524996 0.46456486 -0.025415629 -0.013687963 0.14610015 0.14892471
14.570152 -8.1925259 0.46354708 -0.030511707 0.021141876 0.15822509 0.16252114
14.56972 -8.1325541 0.46352923 -0.023779213 0.090467125 0.10467263 0.14037845
14.546065 -8.0295992 0.46249977 -0.057802051 0.084783837 0.20056894 0.22529376
14.623296 -9.8388214 0.38802376 -0.020029247 -0.0033296137 0.13080473 0.1323712
14.623858 -9.7728481 0.38700494 -0.011386871 -0.033681419 0.095064744 0.10149583
14.607202 -9.6628933 0.38697445 -0.028771669 0.021235695 0.1553499 0.15941252
14.621773 -9.6079168 0.3859579 -0.030659437 -0.034672663 0.16216372 0.16863945
14.615333 -9.5379457 0.38593817 -0.011284262 -0.022365943 0.097034238 0.10021583
14.625899 -9.4799709 0.38592094 -0.033814758 -0.0095083201 0.17227314 0.17581776
14.616467 -9.4099998 0.38490134 -0.02165845 -0.020480119 0.13679075 0.14000084
14.62903 -9.3530245 0.38488421 -0.024943233 0.078616872 0.1194604 0.14516737
14.594809 -9.2990446 0.3848705 -0.013751566 0.067131005 0.077332474 0.10332468
14.61438 -9.2480688 0.38385469 -0.032273501 -0.049666256 0.16289827 0.17333251
14.605945 -9.1790972 0.38383517 -0.01887551 -0.0025421306 0.1267511 0.12817405
14.606073 -9.0521517 0.38279825 -0.036014706 -0.036693685 0.17606802 0.18342146
14.620641 -8.9981766 0.38278174 -0.014535397 0.046286769 0.096991569 0.10844864
14.594205 -8.9192076 0.38176015 -0.035618454 0.034973882 0.17062929 0.17778134
14.610989 -8.8982191 0.3827531 -0.025758177 -0.013816595 0.14975619 0.15258211
14.606556 -8.8332472 0.38173434 -0.014783233 -0.026172131 0.1097845 0.11382513
14.604127 -8.7702742 0.38171601 -0.037986517 0.05562596 0.16957936 0.18246749
14.588693 -8.6993046 0.380696 -0.025406569 -0.046107881 0.1421681 0.1516021
14.619259 -8.6553259 0.38068143 -0.021322846 -0.022950295 0.13319765 0.136832
14.596828 -8.581358 0.38066086 -0.015934378 0.055792946 0.096621752 0.11270545
14.597177 -8.489399 0.37963369 -0.016614854 -0.008996034 0.11634269 0.11786688
14.598743 -8.4294252 0.3796159 -0.028638482 0.042742256 0.14731161 0.15603773
14.583313 -8.3604546 0.37959629 -0.037965119 -0.043374967 0.17583542 0.18504278
14.61288 -8.3164778 0.37958166 -0.033253431 -0.058428362 0.1602021 0.17373651
14.59845 -8.2485075 0.37856224 -0.034577966 0.03176593 0.16705388 0.17352726
14.601014 -8.1895342 0.37854454 -0.026422352 -0.0020587225 0.14853939 0.15088515
14.597804 -8.1585474 0.37853548 -0.020190179 0.070393994 0.1059207 0.12877171
14.57037 -8.08358 0.3775146 -0.019526184 0.046717726 0.11596654 0.12653875
14.588933 -8.0336046 0.37749869 -0.051452905 -0.097732082 0.18842909 0.21841355
14.592504 -7.9766307 0.37748146 -0.51020545 -0.0046511097 0.48473814 0.70377719
14.548071 -7.8936644 0.37645894 -0.057906181 0.22836691 -0.030792769 0.23759791
