# .PCD v0.7 - Point Cloud Data file format
VERSION 0.7
FIELDS x y z normal_x normal_y normal_z curvature
SIZE 4 4 4 4 4 4 4
TYPE F F F F F F F
COUNT 1 1 1 1 1 1 1
WIDTH 129
HEIGHT 1
VIEWPOINT 0 0 0 1 0 0 0
POINTS 129
DATA ascii
8.5583582 11.528633 0.69476092 -0.017500281 -0.061008066 -0.10987653 0.12689009
8.5319624 11.570619 0.69576049 -0.045805827 -0.042151064 -0.095527306 0.11401909
8.534585 11.650597 0.69775796 -0.039493024 -0.049982131 -0.11337397 0.13004449
8.4539814 11.657587 0.69676071 -0.055887684 -0.048522323 -0.12569512 0.14586675
8.3921957 11.728562 0.69676107 0.083776876 0.091812789 0.37641302 0.39640245
8.3808117 11.791545 0.69875991 0.19927281 0.52208334 -0.11358148 0.57024682
8.1927919 11.723548 0.69276899 -0.081666544 -0.29783699 0.04774797 0.31249988
8.0005713 11.686543 0.68877763 -0.011357307 0.16878724 -0.011922926 0.16958855
7.4698591 12.069405 0.68979752 -0.1186102 -0.025221776 0.022832245 0.12339299
7.4364619 12.102394 0.68979913 -0.15732379 -0.12153497 0.041736782 0.20313415
7.3870664 12.10739 0.68880183 -0.024162754 -0.0985815 0.0092807412 0.10192293
7.3536744 12.13938 0.68980354 -0.027548678 -0.22102448 0.0002951026 0.22273491
7.7391243 12.950211 0.71978021 -0.28645968 0.10734145 -0.01062879 0.30609527
7.6365161 12.918214 0.71678662 -0.25039801 -0.0075249076 0.016071588 0.25102606
7.3285651 13.101159 0.71680862 -0.10563108 -0.18725795 0.037733138 0.21828252
7.2871752 13.124152 0.71681178 -0.069294482 -0.093588896 0.035078734 0.12161876
8.5575266 11.49065 0.60176206 -0.0021315962 -0.035068572 -0.16187856 0.16564725
8.5961599 11.618617 0.60575676 0.034475669 -0.052549928 -0.13236381 0.14652729
8.4713545 11.603611 0.60276163 -0.035759419 -0.022968233 -0.1549761 0.16069806
8.4531565 11.617605 0.60276186 -0.025723994 -0.016117632 -0.11029775 0.11439885
8.3565989 11.796548 0.60576075 0.076473221 0.042286456 0.30559638 0.31784502
8.2551727 11.734557 0.60276628 0.060155824 -0.1140931 -0.30761287 0.33355904
8.0697165 11.551591 0.59577787 -0.10226763 -0.096533626 -0.17238609 0.22247331
8.1715708 11.73455 0.60176963 -0.11328577 -0.40223938 0.428431 0.59848422
8.1261749 11.748543 0.60077119 -0.071126968 -0.25383842 0.46790564 0.53705555
8.1518087 11.864513 0.60376769 -0.16849087 -0.14449826 0.37810338 0.43844163
8.0253754 11.762531 0.59977508 -0.046651065 0.1143401 -0.13614494 0.18380812
8.1340456 12.000476 0.60676599 0.057569083 0.18120424 -0.12473634 0.22739467
7.9890347 11.992467 0.60477263 0.13401474 0.029113531 -0.085534126 0.16162808
7.5717034 11.612535 0.58979744 -0.087447315 -0.021242172 0.069134921 0.11348084
7.765048 12.068432 0.60278243 0.01130864 -0.1342898 0.028332561 0.13771118
7.5820155 11.995438 0.59879231 -0.10070334 -0.10826959 0.087826431 0.1719795
7.6967092 12.25638 0.60578424 -0.10022476 0.016389027 0.05371356 0.11488581
7.5124874 12.223376 0.60279447 -0.13043094 0.070697114 0.026352644 0.15068103
7.4082451 12.0994 0.59780073 -0.080983333 0.06539768 -0.00066781044 0.1040942
7.3478398 12.087399 0.59680402 0.10490357 0.28177106 -0.33626091 0.4510777
7.2814255 12.0664 0.59580779 -0.045870766 -0.21031554 0.0060029328 0.21534342
7.2600398 12.117386 0.59680885 -0.066322632 -0.30266806 0.025867343 0.31092727
7.18262 12.07739 0.59481329 -0.027424537 -0.12220214 -0.015730649 0.12622567
7.2532954 12.279347 0.6008091 0.073092461 0.079195254 -0.046191692 0.11725216
7.4157176 12.963201 0.61880141 -0.18001336 -0.020432554 0.19550981 0.26654527
7.3783355 12.991193 0.61880416 -0.090648234 0.0028551333 0.12359726 0.15330212
7.2133107 12.942197 0.61581504 -0.08264637 -0.016290657 0.12002724 0.14663678
7.203938 13.021179 0.61681658 -0.099055588 -0.11177967 0.09609437 0.17759739
7.1915612 13.096162 0.61881834 -0.13456672 -0.077269062 0.12194401 0.19735515
8.4254341 11.722579 0.53675997 0.055581912 -0.025011569 0.090054311 0.10874147
8.4796934 11.956519 0.5417521 0.079630025 0.1733453 0.079879344 0.20680967
8.3802729 11.897528 0.5387575 0.099975571 0.11876273 0.44341657 0.46980628
8.1878214 11.704565 0.53276968 0.050703108 -0.039045781 -0.13181935 0.14653231
8.0538187 11.710552 0.53177494 -0.053369008 0.016996026 -0.10760152 0.12130623
8.117465 11.882511 0.53576881 -0.19335772 -0.00070634484 0.20418543 0.28121057
7.831965 11.547578 0.52578741 0.043584689 -0.085213989 -0.10991552 0.14574797
7.7725587 11.539575 0.52479005 0.045790285 -0.052130297 -0.08076632 0.10647777
7.8202019 11.688539 0.52778524 -0.09310925 -0.34439361 0.18334363 0.40111244
7.884038 11.823508 0.53178012 -0.18572283 0.14826307 -0.016412437 0.23821057
7.8036304 11.783513 0.52978438 -0.27767396 0.1485922 0.16609058 0.35604569
7.689198 11.693527 0.52679092 0.042780191 -0.21438195 0.050360709 0.22433449
7.6167884 11.664529 0.52479464 -0.11324567 -0.17788911 0.24410771 0.32257974
7.609405 11.73451 0.52679396 -0.03988272 -0.041283101 0.10946605 0.12360316
7.6736126 12.468333 0.54078442 0.016231328 0.08728303 -0.12270443 0.1514535
7.5962014 12.431336 0.53978896 0.016199052 0.074661255 -0.067902148 0.10221259
7.4769583 12.281365 0.53479618 -0.16115128 0.080916718 0.057017416 0.18912491
7.695693 12.726274 0.54678267 -0.035802066 -0.029190317 -0.26781857 0.27177316
7.5672536 12.606295 0.54279041 0.034848839 -0.04351674 -0.15028425 0.16029193
7.7279577 12.96422 0.55178094 -0.026333749 -0.0068502091 -0.44947481 0.45029768
7.5244837 12.717266 0.5437932 -0.022918105 0.09193597 -0.2474672 0.2649858
7.6097846 13.046197 0.55178899 0.043942124 0.11545186 -0.16695848 0.2076901
7.5054331 13.201159 0.55379713 -0.054129243 0.072605148 0.060819328 0.10908929
7.3779902 13.07618 0.54980493 -0.086278468 -0.0029034726 0.14159846 0.16583887
7.3776202 13.172159 0.55180591 -0.055443764 -0.014900253 0.092639759 0.10898694
7.3632398 13.245143 0.55280769 -0.066212356 0.036878232 0.083661497 0.11288634
8.1414957 11.69857 0.42377165 0.0089824349 -0.01306656 -0.11876588 0.11981966
7.8397923 11.386629 0.41679063 0.54373342 -0.66635573 0.45807323 0.97442657
7.8369594 11.977473 0.42477998 0.068380475 -0.099336281 -0.10036499 0.15689716
7.7431617 12.000461 0.42378426 0.020539135 -0.10231233 0.041470692 0.11229198
7.5719004 12.455338 0.4287903 0.017943442 0.035162032 -0.102028 0.10939857
7.4348893 12.454331 0.42679834 0.061109722 -0.030800641 -0.073699504 0.10057183
7.3831124 12.548306 0.42780158 0.05401668 -0.00046691298 -0.10756518 0.1203673
7.4192147 12.835243 0.43180034 -0.048182309 -0.077572957 0.1515798 0.17696196
7.4028363 12.900228 0.43280184 -0.053994834 -0.013420703 0.12686992 0.1385335
7.4947815 13.347136 0.43979937 0.038912356 -0.043449607 -0.0916031 0.10859635
7.8527336 11.415628 0.34578943 0.57980847 -0.53864056 0.24283153 0.82781559
7.8173356 11.442618 0.34579024 0.6584239 -0.48303372 0.22479466 0.84698063
7.9412489 11.861516 0.34977695 -0.073421448 0.062958956 -0.033164617 0.10224691
7.9770737 11.955495 0.35077378 -0.0039322674 -0.021899074 -0.18465963 0.18599519
7.7532191 11.784522 0.34878665 0.056037813 -0.1009059 -0.029578015 0.11915156
7.904911 12.094454 0.35177523 0.044251561 -0.090132311 -0.063177496 0.11863149
7.9545579 12.253417 0.35377091 0.0376544 -0.090446487 0.02014561 0.10002133
7.6747298 12.204412 0.35178581 0.027941078 -0.011562333 -0.11601404 0.11989015
7.6720433 12.592318 0.35478419 -0.037928402 0.054177254 0.079512879 0.10342164
7.5916314 12.550323 0.353789 -0.026063114 0.072521627 -0.080171712 0.11120331
7.6212702 12.689293 0.35578719 -0.047295451 0.0015714616 0.13814542 0.14602563
7.3894715 12.713275 0.35480168 -0.025010407 0.08389131 -0.11417454 0.14387181
7.5304308 13.239166 0.35979575 0.01721248 -0.070554852 -0.19899911 0.21183696
7.4870429 13.25916 0.359799 0.023031741 -0.095752537 -0.166338 0.19330634
7.4566545 13.30415 0.35980162 0.017352253 -0.076779962 -0.12276216 0.14583145
7.7544112 11.32765 0.24779524 -0.056040645 -0.19828784 -0.21303183 0.29638013
7.8503194 11.700559 0.24878374 0.077689558 -0.095270842 0.030691847 0.12670514
7.8949714 11.844524 0.24977931 0.0095444322 0.01355201 -0.11030327 0.11154176
7.9744449 12.084468 0.250772 0.063675135 -0.11772691 -0.064975999 0.14878182
7.8580098 11.993484 0.24977879 0.080155164 -0.15927772 -0.04132612 0.18303576
7.8246188 12.025473 0.24977998 0.044320673 -0.086421371 -0.067495234 0.11827334
7.7054958 12.305396 0.25078344 -0.0008957088 0.01889658 -0.13576274 0.13707444
7.6660976 12.330387 0.25078547 0.0037930608 0.015694365 -0.11377858 0.11491852
7.5836835 12.285393 0.25079021 0.012714088 -0.012410387 -0.15886794 0.15985835
7.5122695 12.258395 0.2497943 0.045475394 -0.056585342 -0.10160533 0.12487415
7.4888878 12.306382 0.24979545 0.027282596 0.0047450513 -0.16209187 0.16444035
7.5027084 12.372367 0.25079447 0.015349001 -0.018245563 -0.11488333 0.11733147
7.4309196 12.432349 0.25079858 -0.010286391 0.021979511 -0.19771881 0.19920251
7.4328127 12.703287 0.25079888 -0.0015818775 -0.16629642 0.021135874 0.16764167
7.4096131 12.710285 0.2508004 0.00076958537 -0.13245706 0.023875475 0.13459384
7.5766034 13.275168 0.25279284 -0.013168097 -0.10355549 -0.033107243 0.1095136
7.4391513 13.135193 0.25280118 0.028551638 0.046250399 -0.085827366 0.10159051
7.9276929 11.953504 0.18177609 0.050988972 -0.096694961 0.066087872 0.12773956
7.9383202 12.051479 0.18177418 0.058425099 -0.11744355 0.035619874 0.13592371
7.8318977 11.973492 0.18178031 0.051609427 -0.10562748 0.010716327 0.11804888
7.7925577 12.206431 0.18177964 -0.0084171593 0.052547798 -0.085717872 0.10089437
7.5382452 12.541336 0.18179217 -0.022832364 0.085973769 -0.18798864 0.20797244
7.4470763 12.661304 0.18179788 0.012504578 -0.097199991 -0.041937232 0.10659706
7.6142321 13.178197 0.18078947 -0.0036025643 0.11046063 -0.028950654 0.11424828
7.5716963 12.255411 0.089791037 0.018692195 -0.088979974 0.097328097 0.13319007
7.3327651 12.526335 0.08880464 -0.13109455 0.32172939 -0.22208345 0.41233072
7.3724174 12.683301 0.087802671 -0.065461934 -0.32239604 -0.12110204 0.35055694
7.2609811 12.586318 0.088809349 -0.20812044 0.072990954 -0.17151 0.27938765
7.255796 12.622309 0.088809855 -0.39793128 0.32348821 -0.11089 0.52468133
7.1673746 12.562318 0.088815235 -0.022076935 -0.19499433 -0.18614534 0.27048156
7.4719186 12.259411 0.00079655176 0.024506867 0.0251652 -0.11772847 0.1228571
7.1260004 12.57332 -0.00018201768 0.068740889 -0.18890792 -0.14810559 0.24969336
7.0725989 12.572318 -0.00017852495 -0.44453081 -0.18101107 0.76557869 0.90359467
