# .PCD v0.7 - Point Cloud Data file format
VERSION 0.7
FIELDS x y z normal_x normal_y normal_z curvature
SIZE 4 4 4 4 4 4 4
TYPE F F F F F F F
COUNT 1 1 1 1 1 1 1
WIDTH 162
HEIGHT 1
VIEWPOINT 0 0 0 1 0 0 0
POINTS 162
DATA ascii
-1.5641567 -9.1127167 0.52664417 -0.10396321 0.014234066 -0.075583801 0.1293208
-1.4300722 -9.1016922 0.5256567 0.16980374 0.01066348 -0.10535757 0.20011805
-1.4014934 -9.1046877 0.52565974 0.17448258 -0.011666 -0.12089749 0.21259461
-1.3739045 -9.109683 0.52566278 0.11790787 -0.037587792 -0.046989575 0.13237494
-1.3433392 -9.1046782 0.52566522 0.098890543 -0.053096533 -0.013149463 0.11301102
-1.3042959 -9.3126841 0.53268808 0.085982025 -0.040079623 -0.12393828 0.15607685
-1.2846785 -9.3706837 0.53369534 0.076884165 -0.053435296 -0.087846182 0.12838791
-1.2551106 -9.3776789 0.53369874 0.064996287 -0.050493002 -0.082363501 0.11643799
-1.0302874 -9.3566427 0.53271627 -0.099179342 0.018040448 0.033550348 0.10624324
-1.0007113 -9.356638 0.53171867 -0.094276592 0.015094697 0.048358496 0.10702556
-1.5778056 -9.0547228 0.46663758 -0.10015193 -0.0076511204 -0.098109894 0.14040832
-1.5462449 -9.0467167 0.46564016 -0.12053725 0.0065993667 -0.1268062 0.17507882
-1.52165 -9.0677137 0.46664453 -0.083828464 0.017367512 -0.072521359 0.1121971
-1.4624984 -9.0627031 0.46564999 0.096183412 0.01783818 -0.071129605 0.12094986
-1.4329207 -9.0586967 0.4656525 0.16528797 -0.022168964 -0.10031514 0.19461425
-1.4161444 -9.0486946 0.46565321 0.12550564 -0.045013517 -0.042294741 0.13988112
-1.386572 -9.046689 0.46465585 0.10763325 -0.051776648 -0.022386923 0.12151919
-1.3274184 -9.0366783 0.46466044 0.059435457 -0.050260484 0.063196927 0.10026236
-1.3048202 -9.0726776 0.46566582 0.046343714 -0.044402063 0.095250353 0.11485605
-1.2991577 -9.2076845 0.4686788 0.094705656 -0.046663433 -0.060715679 0.12179093
-1.302312 -9.3166914 0.47168866 0.079393074 -0.040756702 -0.11024138 0.14183629
-1.2737324 -9.3236866 0.47169197 0.065624908 -0.040293664 -0.092473194 0.1203391
-1.4231725 -9.1177053 0.4226588 0.11921074 -0.032595843 -0.023542285 0.1258091
-1.3916 -9.1026993 0.42266047 0.1274785 -0.049801737 -0.020092554 0.13832819
-1.3640192 -9.1116953 0.4226639 0.091257483 -0.048998535 0.002430588 0.10360836
-1.3110193 -9.2326937 0.42568001 0.10569704 -0.052389115 -0.033699572 0.12268718
-1.3033742 -9.3676996 0.42869335 0.08271952 -0.042940259 -0.081432655 0.12376454
-1.0539644 -9.3916616 0.42771772 -0.096940786 0.01779148 0.033836581 0.10420637
-1.0223882 -9.3716555 0.42771837 -0.10051552 0.017720222 0.036012821 0.10823262
-1.2930115 -9.1016912 0.35166952 0.085906684 -0.052676558 0.013241355 0.10163715
-1.035123 -9.3286648 0.35471317 -0.10076617 0.0224967 0.026022725 0.10647584
-1.0045466 -9.3166599 0.35471448 -0.10415113 0.019829839 0.029537417 0.11005971
-1.5571939 -9.116745 0.30464527 -0.090609923 -0.026719421 -0.03665356 0.10132901
-1.4684696 -9.1137285 0.304654 0.10788453 -0.010845602 -0.030689556 0.11268783
-1.4546778 -9.1177263 0.30465573 0.15600219 -0.032436132 -0.031038709 0.16233358
-1.4251064 -9.1177206 0.30465862 0.15995458 -0.061322331 -0.024899911 0.17310661
-1.3945317 -9.1087151 0.30466074 0.11578351 -0.055635601 0.0040465072 0.12852049
-1.3659531 -9.1117105 0.30466372 0.10130079 -0.054564357 0.018912742 0.11660536
-1.3217552 -9.1947088 0.30567548 0.09374398 -0.047156423 0.006737208 0.10515252
-1.3111209 -9.3097143 0.30668718 0.10785821 -0.051658392 -0.010005221 0.12000869
-1.3062973 -9.3697176 0.30669326 0.10436189 -0.050276428 -0.022412535 0.11798918
-1.2757298 -9.3687115 0.30669603 0.092456222 -0.049759448 -0.015853852 0.10618616
-1.0834789 -9.3736811 0.30671352 -0.10121888 0.023214132 0.021933824 0.10613788
-1.0538964 -9.3696766 0.30671558 -0.10405458 0.020701319 0.020597864 0.10807484
-1.0233259 -9.3636703 0.30671751 -0.11381418 0.017891079 0.020049509 0.11694332
-1.4662155 -8.9917278 0.23964323 -0.11853585 0.0025805235 -0.04670367 0.12743092
-1.4386312 -8.9967241 0.23964636 -0.16444027 0.028002262 -0.032950532 0.17003079
-1.4080567 -8.9857178 0.23964828 -0.14110886 0.044950247 -0.033566516 0.15185171
-1.2982188 -9.2737179 0.23968503 0.098016173 -0.050497353 -0.003071554 0.11030225
-0.97488666 -9.277668 0.23971301 -0.10554793 0.018007398 0.010153912 0.1075534
-1.5670954 -9.1517639 0.19564737 -0.082743093 -0.031240493 -0.056624688 0.10501783
-1.5375162 -9.1497583 0.19565026 -0.090497352 -0.024903864 -0.058211364 0.11044698
-1.4497831 -9.1507416 0.19565921 0.10593916 -0.028925896 -0.076696217 0.13394821
-1.4340028 -9.146739 0.19566038 0.12769544 -0.043110549 -0.062795669 0.14868739
-1.4054242 -9.1507339 0.19566353 0.13575451 -0.062287331 -0.044579081 0.15587269
-1.3768399 -9.1517296 0.19566636 0.1182446 -0.061900765 -0.031070383 0.13703598
-1.3472664 -9.1507244 0.19566907 0.097600967 -0.056252271 -0.02401362 0.11518212
-1.3080548 -9.2687244 0.19568366 0.10000719 -0.05257532 -0.010267898 0.11345057
-1.2994126 -9.3997316 0.19569671 0.095379934 -0.044977844 0.01929792 0.10720424
-1.0923723 -9.4116983 0.19571643 -0.10031518 0.017357707 0.0027892552 0.10184402
-1.0312275 -9.3996878 0.19572037 -0.10333106 0.012221813 -0.009032812 0.10444267
-1.5146557 -9.0727568 0.13664569 -0.092252165 -0.025356054 -0.03646376 0.10238651
-1.399344 -9.0777359 0.13665746 0.097120538 -0.056608647 -0.027479466 0.11572406
-1.2971574 -9.2497292 0.1356829 0.085468993 -0.048563182 -0.027983805 0.10220775
-1.0499009 -9.370697 0.13471602 -0.10261817 0.014716387 -0.023263222 0.10624612
-0.99074614 -9.3686886 0.13472062 -0.098660752 0.0099677145 -0.026933283 0.10275554
-1.5097355 -9.0847635 0.079647258 -0.10608374 -0.026115388 0.0030942727 0.10929478
-1.4525762 -9.0897532 0.079653397 0.11639448 -0.041319638 -0.0088209622 0.12382568
-1.4220059 -9.0827475 0.079655737 0.095917881 -0.051106244 -0.010624895 0.10920154
-1.4052274 -9.071744 0.079656348 0.10153599 -0.059651494 -0.0040923245 0.11783295
-1.3796355 -9.0887413 0.079660334 0.095218703 -0.060143322 -0.012763193 0.11334337
-1.5501803 -9.1077814 0.013645196 -0.098573029 -0.040487736 0.0051017199 0.10668611
-1.501829 -9.0847702 0.014648055 -0.13005963 -0.02974233 0.018379055 0.13467704
-1.4446743 -9.0917606 0.014654353 0.13897905 -0.054324418 0.0069130585 0.14937907
-1.4160877 -9.0907564 0.014657038 0.11821941 -0.066592485 -0.00059149973 0.13568617
-1.3885037 -9.0977516 0.014660317 0.1000796 -0.063469321 -0.0068123937 0.11870421
-1.3599298 -9.102747 0.014663475 0.085188597 -0.055667251 -0.0047292151 0.10187396
-1.3155649 -9.0967388 0.014667037 0.08330135 -0.059298694 -0.0046138335 0.10235593
-1.5838033 -9.1617985 -0.035353474 -0.094842508 -0.041433007 -0.0028542373 0.10353715
-1.5532244 -9.1537914 -0.035350993 -0.10614692 -0.039782941 -0.007847853 0.11362852
-1.5364505 -9.1467876 -0.034349889 -0.10793483 -0.037676334 -0.0071396828 0.11454435
-1.4792936 -9.1557779 -0.034343276 0.10431471 -0.012799114 0.010571999 0.10562739
-1.448718 -9.1477718 -0.034340963 0.15375683 -0.050365627 0.0083301943 0.16201003
-1.4201374 -9.1507664 -0.034337889 0.16968091 -0.075561047 0.0064658001 0.18585718
-1.3895696 -9.1457615 -0.034335397 0.12914447 -0.068725616 0.018897248 0.14750801
-1.3619794 -9.1507568 -0.034332313 0.10342523 -0.058027804 0.01378033 0.11938971
-1.3412126 -9.1157503 -0.033333581 0.086878851 -0.058124602 -0.0070854686 0.1047693
-1.3295803 -9.2197561 -0.035322905 0.090396285 -0.047917843 0.017778572 0.10384452
-1.3219378 -9.354764 -0.039309632 0.094393983 -0.04319945 0.0067255287 0.10402715
-1.302326 -9.4167643 -0.040301964 0.097802326 -0.045449257 -0.014828468 0.10886144
-1.0469335 -9.4027214 -0.039280631 -0.099559158 0.013845146 0.0077359406 0.10081448
-1.5669346 -9.1207991 -0.089355372 -0.11312582 -0.047940761 0.014524484 0.12372036
-1.5353632 -9.1087923 -0.089353189 -0.1276824 -0.042720556 0.025950488 0.13711773
-1.5087808 -9.1237888 -0.089349136 -0.10796545 -0.0222812 0.026840752 0.11346108
-1.4772114 -9.1117821 -0.08934705 0.12099408 -0.015830159 0.025889326 0.12474141
-1.464416 -9.12078 -0.089344963 0.16338196 -0.039684415 0.030056838 0.17079793
-1.4328425 -9.1057739 -0.088343218 0.17242566 -0.080036134 0.036698204 0.19360565
-1.4062594 -9.1207695 -0.088339284 0.13074706 -0.070827544 0.036691185 0.15315868
-1.3737003 -9.104763 -0.088337637 0.092676505 -0.055538476 0.026041646 0.11113786
-1.3461196 -9.113759 -0.088334225 0.086219728 -0.054806769 0.013226289 0.10301727
-1.3140359 -9.3567696 -0.095308691 0.10711271 -0.05040732 0.004480755 0.11846563
-1.2894348 -9.3847666 -0.096303754 0.093217641 -0.044919997 -0.0045755506 0.10357736
-1.0380293 -9.3927259 -0.095280863 -0.10320686 0.014774561 0.016486879 0.10555454
-1.6441309 -9.2608337 -0.15735108 -0.090252295 -0.037825227 0.022047415 0.10031108
-1.599596 -9.1868181 -0.1533529 -0.1052095 -0.041570634 0.033749279 0.11805156
-1.5630341 -9.1488085 -0.15235247 -0.10536861 -0.036026776 0.039811943 0.11826015
-1.5344585 -9.1548042 -0.15234897 -0.098794483 -0.023641706 0.047485478 0.11213452
-1.4605162 -9.1507893 -0.15134186 0.12030052 -0.020452082 0.053514551 0.13324529
-1.4299475 -9.1457844 -0.15133931 0.14158015 -0.050284564 0.049253389 0.1581119
-1.4013692 -9.1497793 -0.15133616 0.11957194 -0.050322115 0.041560262 0.13622415
-1.371792 -9.1467733 -0.15033361 0.10927553 -0.057101965 0.03482243 0.1281186
-1.3422152 -9.1437674 -0.15033109 0.089753464 -0.051357061 0.03229066 0.10833244
-1.3217716 -9.282774 -0.15531631 0.10395789 -0.050516695 0.025571283 0.11837681
-1.3101456 -9.3987799 -0.1593044 0.10975906 -0.052048415 0.025366135 0.12409484
-1.0883169 -9.4107428 -0.15928333 -0.099463001 0.01959157 -0.0057505672 0.10153712
-1.0577391 -9.4007368 -0.15828171 -0.1156228 0.017972708 0.0016540815 0.11702302
-1.0291556 -9.4067335 -0.15827878 -0.10203952 0.013968378 0.0061323862 0.10317356
-1.4357439 -9.0967884 -0.20434432 0.10340494 -0.034240067 0.032561712 0.11368918
-1.418957 -9.0817842 -0.20334405 0.099585861 -0.041451067 0.034148831 0.11314449
-1.3903878 -9.0887804 -0.20334068 0.092765257 -0.049371392 0.030806929 0.10950796
-1.3051248 -9.3567829 -0.21430784 0.1074276 -0.050182015 0.034413412 0.12346338
-1.2765435 -9.3637791 -0.21530451 0.088781178 -0.045044839 0.026434535 0.10300446
-1.0527313 -9.356741 -0.21328555 -0.097398214 0.019964695 -0.013570431 0.10034519
-1.0251465 -9.370738 -0.21328193 -0.11321653 0.018026501 -0.012901133 0.11536627
-0.9925819 -9.3467312 -0.21228166 -0.11027914 0.016425997 -0.0062521189 0.1116709
-1.6281813 -9.1998405 -0.2643548 -0.080628499 -0.032528907 0.058518656 0.10480228
-1.297199 -9.3447886 -0.26830825 0.096251339 -0.046302229 0.013669793 0.10768045
-1.2715983 -9.3647852 -0.26930398 0.091302022 -0.047103196 0.011457503 0.10337333
-1.016221 -9.3437424 -0.26628384 -0.10066675 0.017956704 -0.027031263 0.10576827
-0.98664117 -9.3397369 -0.26628187 -0.10832262 0.015774637 -0.023106636 0.11187737
-1.5618039 -9.0638237 -0.31635991 -0.08397343 -0.018997014 0.055302657 0.10232697
-1.5302398 -9.0538177 -0.3153576 -0.091789052 -0.007722199 0.04824372 0.1039823
-1.4700921 -9.0428047 -0.31435254 -0.078537986 0.025281131 0.059145026 0.10151593
-1.413143 -9.1568098 -0.36933666 0.10422307 -0.032012999 0.028807081 0.11277024
-1.3825696 -9.1488037 -0.36933443 0.098662525 -0.039138943 0.026379466 0.10937105
-1.3179286 -9.378809 -0.38230699 0.11217853 -0.05074665 0.03736265 0.12866706
-1.2923405 -9.406806 -0.38330194 0.095302314 -0.047307312 0.035822369 0.11226644
-1.0399318 -9.4067631 -0.38127965 -0.099448889 0.016180456 -0.016499925 0.10209866
-1.6528283 -9.2238693 -0.44235533 -0.066257924 -0.034023434 -0.091514379 0.11799402
-1.5845296 -9.1038465 -0.43335873 -0.084596917 -0.010303885 0.062718198 0.10581295
-1.5529634 -9.0938406 -0.43235633 -0.090598792 0.0084961355 0.077655017 0.11962703
-1.5243906 -9.0998344 -0.43235287 -0.08773689 0.019051254 0.062289417 0.10927344
-1.3035772 -9.0857944 -0.4283329 0.042677388 -0.04469946 -0.080459006 0.10145469
-0.99549419 -9.3667622 -0.44427994 -0.089762963 0.012850553 -0.056828186 0.10701387
-1.665832 -9.3118858 -0.4953489 -0.066809416 -0.049991578 -0.093280777 0.12515573
-1.6470472 -9.2898798 -0.49334881 0.3521933 -0.82207823 0.39517298 0.9777599
-1.6015126 -9.2098646 -0.48735103 0.25395736 -0.79817873 0.54169297 0.99750435
-1.5639563 -9.1678534 -0.48335084 -0.15823284 0.7454958 -0.63216424 0.99016827
-1.537382 -9.187851 -0.4843463 0.070870742 -0.67626488 0.72619915 0.99484771
-1.5087947 -9.1888447 -0.48434326 0.0020761611 -0.6574291 0.74720329 0.9952538
-1.4476538 -9.178833 -0.48233804 0.034033686 -0.077246249 -0.0801498 0.11640131
-1.4338605 -9.1828308 -0.4833363 0.021169677 -0.096560568 -0.1042479 0.14366533
-1.4032898 -9.1768236 -0.48233387 0.061631605 -0.067965895 -0.07387355 0.1177927
-1.3747164 -9.1838188 -0.48233047 0.071493581 -0.055159748 -0.05146642 0.10393614
-1.3471249 -9.1888151 -0.4823274 0.056314185 -0.064670295 -0.097944863 0.13017961
-1.3145645 -9.1718082 -0.48032594 0.043526769 -0.059105903 -0.10458552 0.12777409
-1.3089141 -9.3188171 -0.49131176 0.069977194 -0.06319207 -0.10752425 0.14300877
-1.0902296 -9.4427881 -0.49728036 -0.067877784 0.014393955 -0.08894974 0.11281239
-1.0606557 -9.446784 -0.49727747 -0.066484801 0.0095865428 -0.085856602 0.1090114
-1.0290847 -9.431777 -0.49627632 -0.070191994 0.0057542324 -0.086538032 0.11157446
-0.9995116 -9.4357738 -0.49627352 -0.06986323 0.0024135113 -0.083814979 0.10914049
-0.97093076 -9.4447689 -0.49627033 -0.060572244 -0.00037297606 -0.079993077 0.10033956
