# .PCD v0.7 - Point Cloud Data file format
VERSION 0.7
FIELDS x y z normal_x normal_y normal_z curvature
SIZE 4 4 4 4 4 4 4
TYPE F F F F F F F
COUNT 1 1 1 1 1 1 1
WIDTH 64
HEIGHT 1
VIEWPOINT 0 0 0 1 0 0 0
POINTS 64
DATA ascii
4.434804 -4.5315642 0.42329082 -0.023329556 -0.60822785 0.26789668 0.66502184
4.4483948 -4.5185771 0.42328346 -0.020211905 -0.60617411 0.26575956 0.66218102
4.4539576 -4.4955935 0.42327377 -0.037154198 -0.6600312 0.22402595 0.69800377
4.4795604 -4.4956036 0.42326909 -0.03781122 -0.65934849 0.2240231 0.69739258
4.4981208 -4.4856162 0.42426193 -0.03781122 -0.65934849 0.2240231 0.69739258
4.4390464 -4.5515566 0.38329756 -0.023329556 -0.60822785 0.26789668 0.66502184
4.4385986 -4.5215745 0.38328639 0.096904188 -0.25390431 -0.1760664 0.32381663
4.4391785 -4.4945912 0.38227609 0.10441959 -0.29911175 -0.1738787 0.36139324
4.4619613 -4.5035939 0.38327533 0.096567094 -0.25355503 -0.17606796 0.32344288
4.480566 -4.4966054 0.38326931 -0.021206021 -0.60514212 0.26575515 0.66126579
4.4861279 -4.4736223 0.38325959 0.061297834 -0.61270571 -0.027552737 0.61638045
4.4738855 -4.5765557 0.35430056 -0.027147204 -0.69839245 0.12737158 0.71043116
4.4754696 -4.5505724 0.35429054 0.074369907 -0.59299701 0.0076691005 0.59769154
4.4762607 -4.5375805 0.35428551 0.09546116 -0.54655737 -0.043988273 0.55657232
4.4848394 -4.5185952 0.35427681 0.12888727 -0.27618307 -0.070329614 0.31278628
4.4994168 -4.505609 0.35426927 0.1331737 -0.42513448 0.0074289432 0.44556677
4.4037905 -4.4975801 0.30428374 0.017860979 -0.044055045 -0.11956416 0.12866798
4.415349 -4.4805951 0.30427518 0.061660081 -0.11026749 -0.12310629 0.1763974
4.4452972 -4.5075922 0.27327988 -0.038892746 0.016237348 -0.11676663 0.12414002
4.4844456 -4.4916167 0.2732667 -0.11794278 0.089827031 -0.022227315 0.14991146
4.3608518 -4.4565935 0.22827624 -0.7023505 -0.10711545 0.27782068 0.76285928
4.377419 -4.4456062 0.22826898 -0.71762115 -0.11989036 0.26900432 0.77570432
4.3880043 -4.4296207 0.22826093 -0.71820331 -0.12027171 0.26854128 0.77614152
4.4065871 -4.4216328 0.22825444 -0.71820331 -0.12027171 0.26854128 0.77614152
4.4950018 -4.6045566 0.19930717 -0.36026558 -0.34626371 0.50526619 0.71062213
4.4775805 -4.558578 0.19929315 -0.12291677 0.085249186 0.09042675 0.17479403
4.4951434 -4.5475912 0.19928585 -0.093893111 0.074423522 0.046688844 0.12858704
4.5089459 -4.5485954 0.19928373 0.069506228 -0.095840126 0.052872591 0.12966092
4.519526 -4.5316095 0.19927543 0.1154615 -0.1946194 -0.018836908 0.22707465
4.5391054 -4.523622 0.19926891 0.10832688 -0.24896778 -0.13839854 0.30475208
4.419939 -4.5225801 0.15929018 -0.19017251 0.12376392 0.0090618804 0.22707973
4.4305301 -4.5065942 0.15928222 -0.15092622 0.10680878 0.032364465 0.18770802
4.4580998 -4.5066047 0.15927719 -0.62148654 0.028328806 0.20932212 0.65640217
4.4676762 -4.4886189 0.15926865 -0.40670222 0.10895169 0.20688725 0.46912631
4.4822512 -4.4756327 0.15926106 -0.40670222 0.10895169 0.20688725 0.46912631
4.4417858 -4.5345836 0.12029068 0.097827077 -0.54663736 -0.018389625 0.55562639
4.4503632 -4.5155983 0.12028198 0.097129941 -0.54591274 -0.018392945 0.55479115
4.4479427 -4.4856153 0.12027111 -0.017588764 -0.6892851 0.12630557 0.70098245
4.4597287 -4.4836211 0.1202682 -0.017588764 -0.6892851 0.12630557 0.70098245
4.4783177 -4.4756336 0.12026177 -0.063900441 -0.7249186 0.14152309 0.74136293
4.4241734 -4.541575 0.076296531 0.033351421 -0.65181923 0.053972397 0.65489972
4.4557562 -4.5465841 0.075292632 -0.6666106 0.040106148 -0.073060252 0.67180055
4.4363294 -4.4986057 0.07627815 -0.025097162 -0.7112059 0.070281722 0.7151106
4.476912 -4.5126128 0.07527601 -0.049112767 -0.72983563 0.081426382 0.73600435
4.4914885 -4.4996266 0.075268455 -0.022599071 -0.70720387 0.079085313 0.71197087
4.427444 -4.5625658 0.043303784 0.052102178 -0.61890024 0.084624425 0.62682807
4.4430199 -4.5505786 0.043296456 -0.070260912 -0.7407335 0.11047337 0.75221479
4.4615946 -4.5415912 0.043289702 -0.06413579 -0.72642362 0.14145023 0.74284106
4.4601617 -4.5116086 0.04327869 -0.061120808 -0.72191632 0.14373291 0.73861903
4.4807506 -4.505621 0.043272678 -0.066007376 -0.72683632 0.14075044 0.74327564
4.5153246 -4.5126295 0.042269047 -0.57150811 0.088286877 -0.12403625 0.59143984
4.4211707 -4.5375805 0.006295586 0.021366805 -0.66966474 0.027613496 0.67057431
4.4377441 -4.5265937 0.006288426 -0.6077584 0.086813122 -0.014313441 0.6140942
4.4553332 -4.5176058 0.0062818294 -0.60848475 0.087568045 -0.014316756 0.61492014
4.4511089 -4.4986157 0.0062754443 -0.60846889 0.087551534 -0.014316692 0.61490214
4.4656839 -4.4856291 0.0062678708 -0.60729271 0.088207036 -0.014631432 0.61383957
4.5122857 -4.5066342 0.0052673356 -0.60294151 0.090973467 -0.0053073652 0.60978913
4.4559956 -4.5615821 -0.036701795 -0.0033916235 -0.69743693 0.013897318 0.69758362
4.4707661 -4.5615873 -0.036704477 -0.70783085 0.01202473 -0.0028436943 0.70793867
4.4843445 -4.5476012 -0.036712181 -0.63925779 0.067669928 0.0099638607 0.64290667
4.4969234 -4.5326152 -0.03672009 -0.59240568 0.095619142 -0.00098248478 0.6000737
4.511517 -4.520628 -0.036727246 -0.42823669 0.14721999 -0.038514808 0.4544709
4.4350562 -4.5435872 -0.073704705 -0.077160954 0.064265341 0.034714188 0.10624933
4.4629292 -4.5635877 -0.1117023 -0.56034863 0.10243422 0.093327239 0.57722902
