# .PCD v0.7 - Point Cloud Data file format
VERSION 0.7
FIELDS x y z normal_x normal_y normal_z curvature
SIZE 4 4 4 4 4 4 4
TYPE F F F F F F F
COUNT 1 1 1 1 1 1 1
WIDTH 254
HEIGHT 1
VIEWPOINT 0 0 0 1 0 0 0
POINTS 254
DATA ascii
-10.247133 14.343814 0.80255544 0.19046918 -0.093777627 0.027290791 0.21405032
-10.280569 14.294833 0.80156422 0.26439267 -0.13725002 0.057822555 0.30345428
-10.235074 14.135799 0.79652369 -0.27733511 0.17218539 -0.088697463 0.33827478
-10.569986 14.560026 0.81472766 0.14791685 -0.12298787 0.27059579 0.33200526
-10.53548 14.416 0.80969405 -0.30438966 0.21986729 0.29138717 0.47529063
-10.616875 14.432053 0.81173283 -0.29376653 0.52487236 0.30929595 0.67635328
-10.636318 14.364063 0.81073314 0.37418029 -0.16216825 0.15298507 0.43556154
-10.322083 13.836845 0.78952467 0.15690957 -0.035899878 0.081088722 0.18023539
-10.383491 13.828885 0.79055136 0.11344304 -0.10566746 0.1021814 0.18567707
-10.79756 14.300166 0.81179827 -0.78020644 0.1710057 0.6015355 0.99990499
-10.677374 13.997079 0.80170572 0.16444734 -0.16006006 0.0043950379 0.22952443
-10.724791 13.96911 0.80172372 0.19708633 -0.24118082 0.0052005649 0.31150964
-10.568865 13.580997 0.78760391 -0.16142735 -0.11369227 -0.002320081 0.19745912
-10.795115 13.789151 0.79773319 0.25841805 -0.22688767 0.17970029 0.38800785
-10.824554 13.737168 0.79774016 0.12071122 -0.092179418 0.045786291 0.15863363
-10.855755 13.733189 0.79775393 0.085862488 -0.098276533 0.049929321 0.13972682
-10.881664 13.587202 0.79474747 -0.23355827 0.27893722 0.060352892 0.36877894
-11.011006 13.664289 0.79981649 0.080062337 -0.10531416 0.064031392 0.14697303
-11.078413 13.660334 0.80084699 0.1127019 -0.15413676 0.092062533 0.21197964
-10.910028 13.360215 0.78873199 -0.10674986 0.12043364 0.15268365 0.22183798
-11.069575 13.430323 0.79481423 -0.23368804 0.24140202 -0.1460751 0.36636454
-11.096015 13.376339 0.79381973 -0.30952233 0.34958568 -0.11957851 0.48198885
-11.150428 13.357375 0.79384249 0.083234057 -0.092284322 0.13292491 0.1819707
-11.159349 13.196377 0.78982651 0.11762379 -0.068364978 0.21424313 0.25378978
-11.275702 13.253456 0.79388767 -0.28793222 0.3666544 0.038775057 0.46780756
-11.328888 13.274493 0.79591501 -0.25872001 0.26397166 -0.045017332 0.37234882
-11.298843 13.068467 0.78987539 -0.048125327 -0.11294831 0.06410034 0.1384999
-11.31429 13.003476 0.78887451 0.0025062263 -0.11031872 0.13725245 0.17611001
-11.325744 12.933483 0.78687108 0.79840702 -0.47926342 -0.35665905 0.99717247
-11.853912 13.252851 0.80715829 -0.10458957 -0.17210419 0.019522429 0.20233625
-11.889346 13.208876 0.80716962 0.16895011 -0.079800427 -0.035695255 0.19022723
-11.851838 13.082848 0.80213654 0.24248722 -0.02026917 -0.13737854 0.27943471
-12.114544 13.211033 0.81227648 -0.011610866 -0.20361221 0.029034525 0.20599939
-12.268884 13.298142 0.81736034 0.078886569 -0.01455459 -0.16083995 0.17973429
-10.253905 14.618845 0.69759321 -0.059248254 0.22060752 -0.20020285 0.30374202
-10.027612 14.188688 0.68443769 -0.46730283 -0.17363638 0.55997729 0.74973071
-10.062043 14.142709 0.68344718 -0.47544986 -0.13556971 0.56667411 0.75203145
-10.370193 14.491916 0.69662929 -0.12870276 0.11752577 -0.126257 0.2152151
-10.482548 14.554989 0.69968766 0.45865285 0.29036421 -0.21575393 0.58414346
-10.294209 14.188857 0.68855685 -0.75023067 0.17456199 0.51943398 0.9290477
-10.541428 14.443023 0.69870013 0.050979763 0.13508353 0.43307859 0.45651239
-10.585612 14.458052 0.69972199 0.72750878 -0.44952404 -0.17661834 0.87323242
-10.406263 14.109926 0.6885972 0.17340328 -0.18241367 0.14537054 0.29064763
-10.437692 14.060945 0.6876052 0.076223388 -0.069244727 0.071312606 0.12526102
-10.451615 13.892949 0.68459022 0.089130417 -0.019889921 0.10393259 0.13835397
-10.427103 13.767929 0.68156332 0.069555402 -0.030691683 0.26492506 0.2756179
-10.540225 13.876005 0.68562824 0.10160461 -0.017721236 0.1042828 0.14667121
-10.672566 13.962093 0.68969905 0.14784381 0.039442271 0.11284451 0.19012462
-10.832341 13.9922 0.69277561 -0.070882738 0.10871449 -0.22351381 0.2584601
-10.737824 13.596126 0.68268275 0.071118891 0.11208349 0.050085992 0.14187746
-10.834969 13.677192 0.68573737 -0.060643017 0.072489977 0.14105617 0.16979168
-10.923346 13.703251 0.6877811 0.58328593 -0.58853918 -0.120281 0.83729821
-10.892846 13.573227 0.6847508 -0.079813078 0.12110259 0.18877901 0.23806193
-11.062146 13.702344 0.69084477 0.079450488 -0.044076085 0.12288745 0.15282802
-10.949718 13.470263 0.68376404 0.51458138 -0.68319279 0.42092127 0.95326865
-11.152997 13.638402 0.69087869 -0.018790439 -0.1402432 0.087483287 0.16635673
-11.305313 13.742507 0.69596207 -0.018567383 0.11322311 -0.18926331 0.22132516
-10.998833 13.31429 0.68076706 -0.0681784 0.053223431 0.18992856 0.20869568
-11.099207 13.352359 0.68381816 -0.67694211 0.63901079 0.10993173 0.93737417
-11.170605 13.354406 0.68485147 -0.015007645 -0.076546311 0.16443236 0.18199606
-11.245461 13.274455 0.6848762 0.010269284 -0.042016894 0.14669552 0.15293938
-11.349829 13.315527 0.68692982 0.13897061 0.031798959 -0.20701444 0.25135431
-11.376505 13.218543 0.68593025 -0.433792 0.82171619 -0.16020396 0.94289887
-11.405944 13.168561 0.68493772 -0.51423609 0.75610805 -0.12558389 0.92298943
-11.707139 13.440774 0.69611222 0.038549416 -0.072939605 -0.13843785 0.16115607
-11.750565 13.405802 0.69612831 0.20644525 -0.82731211 0.51108462 0.99411893
-11.423311 12.938567 0.68091726 -0.10825959 -0.23487402 0.27168858 0.37510082
-11.843411 13.342865 0.6971643 -0.20182332 -0.10155079 0.39178598 0.45226261
-11.894831 13.3169 0.69718534 -0.20896092 -0.18408921 0.28959489 0.40176946
-11.510395 12.832624 0.67994493 0.0058602542 -0.016727656 0.29631987 0.29684949
-11.5678 12.817664 0.68097001 0.10520517 0.032886624 -0.021276429 0.11226016
-12.003895 13.229975 0.69722629 -0.13601077 -0.14858247 0.074620634 0.21481135
-11.923422 13.055916 0.69216704 -0.095723093 -0.22608814 0.071327895 0.25566858
-12.346991 13.362218 0.70640516 0.10597146 0.040695041 -0.20958495 0.23835245
-12.38942 13.324247 0.70642084 0.015532553 0.032771885 -0.15613817 0.16029468
-12.374666 13.265236 0.70540679 0.079734609 -0.010118276 -0.14310215 0.16412865
-10.297388 14.577885 0.61360747 0.016537994 0.27387044 -0.18542984 0.33115366
-10.451704 14.701987 0.61869222 0.062195539 0.032442808 -0.16413274 0.17849475
-10.111506 14.115752 0.60246581 0.81555796 -0.38508272 -0.43038377 0.99932659
-10.207874 14.158815 0.60451436 -0.79059196 0.33144748 0.50009543 0.99246585
-10.342205 14.254903 0.60858679 0.0050613284 0.12583613 -0.014397845 0.12675822
-10.267444 13.913845 0.60050988 0.069486171 -0.028479308 0.097244263 0.12286515
-10.463188 13.997972 0.60560876 0.12262163 0.089283705 0.019726187 0.15296002
-10.518596 13.982008 0.60563177 0.12619218 0.079768509 0.036185458 0.15361273
-10.574013 13.964043 0.6056546 0.13922241 0.087040782 0.057224825 0.17387828
-10.650405 13.975094 0.60769063 0.13479662 0.10198087 0.032282338 0.17208247
-10.808484 14.142201 0.61278349 0.85828793 -0.30564582 -0.30630577 0.96119756
-10.761992 13.987166 0.60874289 -0.046947271 0.011296332 -0.10733265 0.11769431
-10.69552 13.807117 0.60469002 0.71803653 -0.6704126 -0.1675837 0.99655098
-10.840316 13.816213 0.60675716 0.66368961 -0.72622472 -0.10734515 0.98965108
-10.899187 13.713249 0.60577124 -0.66426665 0.73790133 -0.035606749 0.993487
-11.16411 13.827429 0.6119073 0.086189196 0.099469453 -0.063710093 0.14622492
-11.119074 13.593392 0.60685742 -0.021971941 -0.16377577 0.27906498 0.32431859
-11.153506 13.548414 0.60686767 -0.019177616 -0.1488809 0.30150247 0.33680415
-11.204921 13.525448 0.60688859 -0.015010029 -0.1159862 0.14990357 0.19012937
-11.172181 13.441423 0.60486305 0.70524228 -0.68853897 -0.086954266 0.98945117
-11.228055 13.337459 0.60387599 0.74553108 -0.65624487 -0.10937896 0.99921852
-11.282477 13.316495 0.60489863 0.68665731 -0.71677417 -0.047374681 0.9937343
-11.393846 13.364572 0.60695636 0.49000016 -0.76829696 0.21995628 0.93742263
-11.42328 13.31459 0.60696387 0.16637518 0.046621621 -0.15285365 0.23069139
-11.506899 13.286647 0.60699946 0.29735813 -0.84767342 0.38149008 0.97596455
-11.402447 13.079571 0.60192502 -0.07798928 -0.06865117 0.14111933 0.17524262
-11.758533 13.241819 0.61011195 0.070688762 -0.070364594 -0.14801764 0.17848614
-11.737247 13.090801 0.60708338 0.22505003 -0.62103665 0.60851586 0.89812338
-11.793661 13.07184 0.60810769 0.32619709 -0.49224484 0.60564935 0.8458845
-11.968983 13.185965 0.61220443 -0.42141804 -0.29123372 0.33517733 0.61217165
-11.833553 12.950865 0.60611165 0.31196383 -0.36940083 0.39785925 0.62615526
-11.891966 12.933907 0.6071372 0.056675106 -0.30720964 0.34922078 0.46855626
-12.261587 13.178169 0.61734235 0.12290845 0.13818097 -0.34068754 0.38764477
-12.45067 13.343306 0.62245238 -0.077578329 0.027597547 -0.058640271 0.1010876
-10.408512 14.489974 0.47964618 -0.042204201 0.25990054 0.12957191 0.29345933
-10.489902 14.508028 0.48068503 0.087864488 -0.45441735 0.33802155 0.57312638
-10.397929 14.184958 0.47560295 -0.81010234 0.35389844 0.46078637 0.99691224
-10.342449 14.012918 0.4725562 0.10569906 0.03918758 0.091490552 0.14518429
-10.407619 14.05696 0.47359112 0.091208994 0.01219523 0.10719761 0.14127679
-10.490005 14.077015 0.47463083 0.080468893 0.026161551 0.09106046 0.12430478
-10.554404 14.073055 0.47565943 0.1171557 0.058958024 0.11838134 0.17667951
-10.605289 13.956085 0.47466776 0.08291173 0.069769442 0.033487871 0.11341767
-10.659166 13.845117 0.47367823 0.8062911 -0.56542933 -0.16479447 0.99848533
-10.733796 13.807165 0.47370744 0.061866969 0.094977096 -0.04069278 0.12043286
-10.770229 13.764187 0.47371864 0.059046596 0.082947537 -0.022387242 0.10424962
-10.726734 13.617155 0.47168031 0.081034541 0.11660479 -0.086848587 0.16645105
-10.739182 13.54516 0.4706769 0.07416299 0.084081858 -0.078994565 0.13714974
-10.73665 13.453156 0.46966416 0.079412371 0.096535891 -0.082151607 0.14958072
-10.731116 13.359149 0.46864974 -0.6822654 0.71895748 -0.11993164 0.99838346
-11.001031 13.483332 0.47278926 0.57686538 -0.79978496 0.15729392 0.99858451
-11.087342 13.330385 0.47180995 0.087350696 0.046167433 0.015724432 0.10004416
-11.262877 13.417506 0.47390205 0.76662564 -0.57955813 -0.1979634 0.98121965
-11.350264 13.437567 0.47494513 0.8075918 -0.54762912 -0.15431055 0.98788351
-11.337734 13.336555 0.47392678 -0.047845036 -0.073609501 0.06182728 0.10737839
-11.476233 13.203647 0.47397488 0.10319795 0.065546572 -0.094536126 0.15454206
-11.518126 13.083673 0.47297966 -0.08336626 -0.089023501 0.17880394 0.21643929
-11.596519 13.091727 0.47401738 -0.11286095 -0.064843506 0.10533358 0.16744383
-11.798271 13.156868 0.47712028 0.014013879 -0.030206472 -0.17867915 0.1817555
-11.894653 13.182935 0.4781689 0.020048276 -0.03419131 -0.13885537 0.14440151
-11.709966 12.766798 0.47103068 0.22008385 -0.00844872 -0.16892691 0.27756906
-11.872292 12.866914 0.47411969 0.13800162 -0.10663486 0.0059618056 0.1745021
-10.337871 14.544946 0.38862145 -0.13723001 0.56203961 -0.26643717 0.63695323
-10.352319 14.468953 0.3876183 -0.13417646 0.28233615 -0.049249977 0.31645313
-10.47913 14.455033 0.38867354 0.096805513 -0.2923179 0.098134153 0.32318938
-10.515564 14.409056 0.38868418 -0.12733865 0.1784769 -0.20373669 0.29929549
-10.5128 14.357053 0.38767639 -0.0024192333 0.32386672 -0.15998003 0.36123279
-10.477295 14.213025 0.38664225 -0.83040273 0.43191183 0.32255423 0.99002916
-10.528714 14.189057 0.38666242 -0.75579023 0.54480267 0.32181397 0.98569417
-10.582131 14.168092 0.38668394 -0.77061987 0.52230889 0.30742335 0.98039311
-10.640535 14.155128 0.38770875 -0.75500166 0.59935009 0.25551078 0.99726319
-10.866021 14.320281 0.38983187 -0.26004317 0.23595341 0.52781457 0.63394374
-10.916443 14.293314 0.38985151 -0.37625989 0.22924979 0.57225835 0.7222234
-10.84098 14.098259 0.38779277 0.80528063 -0.50172991 -0.28683183 0.99120247
-10.803938 13.866227 0.38574684 0.03419894 0.058970556 0.074085623 0.10067658
-10.743147 13.563178 0.38268098 0.058270603 0.083995014 -0.010185659 0.10273448
-10.755597 13.491184 0.38267758 0.067920387 0.088764563 -0.028246514 0.11528309
-11.249479 13.674519 0.38692772 0.80027431 -0.45395443 -0.063711673 0.92226499
-11.371606 13.781604 0.38899755 0.096982986 0.22018042 -0.1279944 0.27252099
-11.373063 13.695602 0.38798761 0.038654864 0.11250459 -0.02702108 0.12199025
-11.319038 13.45356 0.38593259 0.73105562 -0.64792407 -0.072999515 0.97957993
-11.667206 13.226793 0.3870672 0.063319646 0.0054772496 -0.10520592 0.12291324
-11.655375 13.00278 0.38503405 -0.048122197 -0.07644996 0.14807221 0.17345236
-10.482376 14.418055 0.26467031 0.20977822 -0.75417161 0.59987789 0.98622268
-10.635689 14.538157 0.26575455 -0.040165041 -0.45182315 0.77402174 0.89714384
-10.588368 14.137115 0.26468286 -0.76410186 0.61581069 0.1854261 0.9987278
-10.839059 14.291284 0.26581597 0.047980607 0.087690055 -0.13260302 0.16605796
-10.966407 14.368369 0.26588362 0.75581813 -0.62604427 0.090041257 0.98554546
-10.832767 14.141274 0.26479438 -0.82990611 0.52511895 0.1711472 0.99688786
-10.818265 13.443244 0.26370025 0.64994979 -0.71724606 0.22744966 0.99428862
-11.145824 13.506466 0.26385891 0.03337124 -0.02526632 -0.12899935 0.13562028
-11.182255 13.464488 0.26387054 0.0091202706 -0.028658152 -0.13794595 0.14118624
-11.401292 13.691643 0.26500022 -0.305567 0.57028502 -0.20236534 0.67789966
-11.444716 13.656672 0.26501608 0.56850779 0.014774829 -0.52065754 0.77104068
-11.493144 13.07069 0.26396632 0.057042792 -0.021544516 0.098882154 0.11617111
-11.52558 13.024712 0.26397583 -0.018609941 -0.092710435 0.10172068 0.13888359
-11.70989 13.153842 0.26507828 -0.1094115 -0.011719227 -0.012904286 0.11079141
-11.810497 13.143912 0.26512441 -0.053116165 0.070348173 -0.089929938 0.12592691
-11.630106 12.855781 0.26400402 -0.071266145 -0.11422327 0.065016836 0.14950922
-10.639934 14.499173 0.18175158 0.15284756 -0.048429966 -0.055471897 0.16966133
-10.574225 14.360126 0.18170448 0.24413897 -0.81865227 0.51078099 0.9953354
-10.565698 14.253118 0.18168718 -0.54345727 0.77825767 -0.26084882 0.98441499
-10.617121 14.228149 0.18170731 -0.47618458 0.78617841 -0.21926042 0.94493568
-10.639026 14.071159 0.18169752 -0.052749664 -0.072729141 -0.065846086 0.11139014
-10.681448 14.036186 0.18171237 -0.059047073 -0.088299841 -0.06419073 0.12411232
-10.742862 14.025227 0.18173893 -0.028087109 -0.054646492 -0.078983322 0.10006743
-10.828477 14.001282 0.18177494 0.01121068 0.056610867 -0.1477025 0.15857647
-10.800429 13.782256 0.1827347 0.044747829 0.13244706 -0.053185318 0.14957698
-10.880817 13.79731 0.18277334 0.045055091 0.14929342 0.056662831 0.16591914
-11.160044 13.486487 0.182863 0.067822948 0.0091564655 -0.10835638 0.12815966
-11.211229 13.506523 0.18288916 0.031467304 0.00093004107 -0.1273209 0.13115513
-11.284629 13.509573 0.18192355 -0.1327671 -0.083600044 -0.038645077 0.16158438
-11.388004 13.548644 0.18197639 0.66123456 -0.64430439 -0.16233104 0.93739569
-11.348501 13.413613 0.18294132 -0.14062674 -0.10318136 0.022521645 0.17586784
-11.489454 13.198705 0.18298043 0.065358311 -0.019845635 0.0977467 0.11924753
-11.548874 13.182745 0.18300627 0.0048933327 -0.059723198 0.097697586 0.11461075
-11.66224 13.230825 0.18206534 -0.067458369 -0.060987025 0.045060515 0.10149137
-11.623729 13.102796 0.1830315 -0.071554363 -0.070810914 0.040318072 0.10844243
-11.740096 13.152878 0.18209235 -0.14775075 -0.10208821 0.05835408 0.18883191
-11.772528 13.106898 0.18210198 -0.078691795 -0.086216003 0.064042091 0.13314274
-11.708809 12.992852 0.18305796 -0.048210159 -0.086343408 0.061855167 0.11664247
-11.819647 12.951928 0.1831052 -0.28115034 -0.15860228 0.060796976 0.32847598
-11.858535 12.831953 0.18310887 -0.37064064 -0.099208891 0.09256202 0.39469558
-10.29711 14.262962 0.071567491 -0.29499525 -0.37061012 0.35793954 0.59371269
-10.361979 14.164001 0.071584091 -0.69402671 0.61389542 -0.13910194 0.93695784
-10.314496 14.001965 0.072542198 -0.054191083 -0.067696363 0.063383706 0.10741027
-10.445597 14.139053 0.071618579 -0.12332627 -0.12670559 0.10046209 0.20336249
-10.515997 14.142099 0.070650734 -0.046881527 -0.036866099 0.083733857 0.10280246
-10.601383 14.165155 0.070692256 -0.53153074 0.7664113 -0.32071429 0.98629045
-10.590858 14.057145 0.071673892 -0.060931355 -0.050746441 0.095293611 0.12397058
-10.738342 13.933239 0.071725309 -0.016083896 0.0018657744 0.10591084 0.10714139
-10.805215 13.83828 0.071743891 0.023793578 0.12289537 0.11622897 0.17081739
-11.171823 13.549516 0.071876258 0.077130966 0.022212714 -0.12133563 0.14548171
-11.231699 13.448554 0.07189142 0.11233892 0.014118284 0.029776916 0.11707272
-11.271894 13.454581 0.071910806 0.1405061 0.0047592819 0.05275932 0.15016045
-11.28435 13.382587 0.071907647 0.13579026 -0.01707381 0.078289852 0.15766995
-11.351747 13.379633 0.071938597 0.13247551 -0.035118461 0.12656964 0.18655547
-11.472105 13.438717 0.071001962 0.18161342 -0.014532089 0.12947397 0.22351314
-11.644425 13.557839 0.070097096 -0.10717014 -0.25842315 0.1437355 0.31452799
-11.581942 13.396792 0.071048103 0.14363632 -0.078322679 0.10331652 0.19349454
-11.825191 13.599965 0.068186976 0.023981391 -0.095494971 0.054731071 0.1126494
-11.629588 13.325823 0.071061686 0.049073298 -0.098786265 0.10144567 0.1498604
-11.770939 13.404923 0.070137702 -0.1390321 -0.019188732 0.011770099 0.14084271
-11.991209 13.577081 0.068262346 -0.11406715 -0.058445334 0.080987036 0.15161158
-11.722899 13.179885 0.071087562 -0.13554469 -0.1194922 0.03838709 0.18472768
-11.845263 13.235972 0.070152044 -0.16723794 -0.052315384 0.026531994 0.1772269
-10.460436 14.198083 -0.03636729 -0.33188021 0.82232541 -0.44297138 0.9912554
-10.690848 14.185233 -0.038264692 -0.49741411 0.7270143 -0.44334757 0.98616815
-10.782229 14.215294 -0.039219409 -0.13390331 -0.047249258 0.052326918 0.15132976
-10.906039 14.195374 -0.040165477 0.18334296 0.13450655 -0.015504554 0.22791895
-10.900508 14.095368 -0.039180458 0.11914825 0.054022044 -0.047862276 0.13930357
-10.926178 13.991383 -0.038181689 -0.058018744 -0.06672737 0.13349044 0.16012
-10.88968 13.851354 -0.036215875 0.047657043 0.088220775 -0.0044099241 0.10036705
-11.756417 13.683939 -0.041835073 -0.054886118 -0.065909594 0.13729422 0.16188349
-10.610698 14.131199 -0.15930782 -0.48651549 0.74027967 -0.36650634 0.95866477
-10.610157 14.038196 -0.15731977 -0.10076499 -0.037575543 0.086758256 0.13817561
-10.596639 13.926183 -0.15534002 -0.035064608 -0.022325069 0.095834017 0.10446096
-10.736365 13.748269 -0.15429886 -0.79734969 0.57111228 0.17959422 0.99709064
-10.719617 13.680256 -0.15331507 -0.76987773 0.61344433 0.17151573 0.99922138
-10.484649 13.999126 -0.2443815 0.087285668 0.060602725 -0.10271937 0.14779292
-10.546821 14.038169 -0.24634847 -0.089121759 -0.055538476 0.06750758 0.12483783
-10.635205 14.065228 -0.24830501 -0.12837063 -0.0010387897 0.14349946 0.19254139
-10.656645 14.002239 -0.2473032 -0.059017524 0.028199524 0.12169123 0.13815583
-10.638131 13.884223 -0.24432646 -0.053474754 -0.052783221 0.088018671 0.11572772
-10.669559 13.836243 -0.24331823 -0.74032164 0.65813673 0.01427473 0.99066842
-10.739961 13.838289 -0.24528591 -0.71613026 0.68223524 0.10922267 0.9950965
-10.764169 13.825304 -0.2452765 -0.72516072 0.67551124 0.093450367 0.99544287
-10.76963 13.741305 -0.24328457 0.059795886 0.013546854 0.084323227 0.10425676
-10.77409 13.657306 -0.24129309 0.092335179 0.026257634 0.087474197 0.12987295
-11.075751 13.867515 -0.25112852 0.23903325 -0.45457584 0.23056126 0.56296945
-10.560996 13.829187 -0.34436843 0.77296674 -0.61303526 -0.15070575 0.99799901
-10.722775 13.863296 -0.34829062 0.070082009 0.037036777 -0.096157901 0.12461763
-10.770194 13.835326 -0.34827253 0.093546331 0.089081585 -0.27292016 0.30194679
-10.918217 13.803424 -0.35020882 0.06102778 -0.016945928 0.17118157 0.18252312
-10.97563 13.787461 -0.35118452 -0.025338754 0.12326989 -0.13742855 0.1863441
-10.46604 13.916147 -0.45840043 0.71752405 -0.66617447 0.13081017 0.98779583
-10.526443 13.907187 -0.45937425 0.69878519 -0.68599033 0.067145996 0.98152536
-10.560107 13.815206 -0.45737061 -0.015773922 0.03290385 -0.17947951 0.18315123
-10.959074 13.886473 -0.46817973 -0.29157737 0.67742848 -0.29331309 0.79369974
