# .PCD v0.7 - Point Cloud Data file format
VERSION 0.7
FIELDS x y z normal_x normal_y normal_z curvature
SIZE 4 4 4 4 4 4 4
TYPE F F F F F F F
COUNT 1 1 1 1 1 1 1
WIDTH 52
HEIGHT 1
VIEWPOINT 0 0 0 1 0 0 0
POINTS 52
DATA ascii
17.2047 -6.2446613 0.82884622 -0.20761029 -0.07086578 0.12986434 0.25492889
17.203268 -6.1826916 0.82782769 -0.20761029 -0.07086578 0.12986434 0.25492889
18.069654 -6.398643 0.85786182 -0.78919709 0.15323833 0.11035134 0.81147486
17.938799 -6.2267184 0.85181552 -0.10002747 -0.33185211 -0.11286192 0.36451218
17.975368 -6.1757455 0.85179925 -0.075022697 -0.24675673 -0.093368158 0.27428982
18.016949 -6.1277719 0.85278368 -0.041122675 -0.13613378 -0.04308245 0.14859198
18.042524 -6.0738001 0.85376686 0.02024433 0.089192368 -0.082971677 0.1234885
18.031305 -6.037817 0.85275662 -0.005846262 0.071475118 -0.1607492 0.17602038
18.024885 -5.9738483 0.85173798 0.036989421 0.15641834 -0.089408837 0.18392622
18.020458 -5.9098797 0.85071915 0.82292569 -0.4366349 -0.26939026 0.9697566
18.138029 -5.8848987 0.85470808 0.11181755 -0.0043443441 0.14199337 0.18078761
18.041782 -6.4066405 0.73586518 -0.7384389 0.19002074 -0.020697769 0.76277667
18.062565 -6.3816543 0.73585707 -0.7669394 0.26757133 -0.035742171 0.81306088
17.918705 -6.204731 0.73080963 -0.050573885 -0.26899171 0.17793381 0.3264578
17.960283 -6.1567569 0.73079407 -0.047426045 -0.23054223 0.096264832 0.25429484
18.009428 -6.0478139 0.73176032 0.041046947 0.10344342 0.068519264 0.13069156
18.003218 -6.0148296 0.73075068 0.055481583 0.17442694 0.065854669 0.19452456
17.990789 -5.9478617 0.72973132 0.057116061 0.22200531 0.077223524 0.2418927
18.026361 -5.8968892 0.7307151 -0.054576546 -0.083892956 0.066677034 0.12025995
18.198944 -5.8909025 0.73470789 0.19716573 0.048046201 -0.017668445 0.20370306
18.052734 -6.4026456 0.64586359 -0.10841602 -0.55673265 -0.094101384 0.57494378
18.079525 -6.3806577 0.6458562 -0.11887303 -0.57433712 -0.004919786 0.58653057
17.952665 -6.2097325 0.64181 -0.8285991 0.40087223 0.13876449 0.93087626
17.998241 -6.1627588 0.64279461 -0.04351154 -0.18056127 0.094409794 0.20834787
18.043385 -6.051816 0.64276034 0.042318195 0.12785867 0.013103152 0.13531578
18.042957 -5.9888468 0.64174175 0.049040318 0.15223809 0.032159097 0.16314287
18.02375 -5.9518638 0.64173144 0.049301744 0.14999963 0.030297125 0.16077459
18.055325 -5.8998914 0.64171505 -0.63293076 0.74017465 0.12659454 0.98208249
18.232897 -5.8939047 0.64570773 0.12740274 0.020978808 0.018312255 0.13041052
17.76753 -6.2716947 0.49583456 -0.086329885 -0.073151767 0.15202898 0.18951738
17.92647 -6.1707535 0.49679935 -0.74366879 0.57808477 0.27229095 0.98049361
17.99762 -6.0698075 0.49776715 0.017466873 0.09330558 -0.056652028 0.11054626
17.996771 -5.944869 0.49673027 0.063131124 0.14105219 -0.0075110588 0.15471804
17.969549 -5.9038877 0.496719 -0.04886207 -0.15863901 0.065443441 0.17842837
18.123129 -5.8919029 0.4987106 0.1324887 0.051348031 -0.012477801 0.14263789
16.951033 -6.1966786 0.39084101 -0.035663344 -0.022812545 -0.20795423 0.2122198
17.552343 -6.1687331 0.3968114 -0.0338705 -0.45904085 0.30120182 0.55008024
17.869711 -6.1857457 0.39980567 0.091161862 0.10716864 -0.083564803 0.16364193
17.991285 -6.1647635 0.40079543 0.71454918 -0.55648482 -0.030608296 0.90619683
18.011858 -6.1087918 0.4007782 0.035555959 0.069402248 0.17139743 0.18830289
18.009434 -6.0458226 0.4007597 0.80649984 -0.44624212 0.042706281 0.92271227
18.020008 -5.9868522 0.4007419 0.85653239 -0.43237084 -0.14483121 0.97034448
17.987795 -5.9448709 0.39973053 0.82671392 -0.51634359 -0.15765387 0.98738104
18.074371 -5.910893 0.40071774 0.11370412 0.038845927 0.035115164 0.12518269
16.55599 -5.9097967 0.26376912 0.0081354249 -0.038088292 -0.1416679 0.14692412
16.85215 -5.8978233 0.26475483 0.024665441 -0.037922889 -0.14958951 0.15628035
16.99695 -5.9198222 0.26475632 -0.0024643801 -0.036805749 -0.15485683 0.15918975
17.151531 -5.9138355 0.26574913 -0.019544592 -0.029368967 -0.12710583 0.13191065
17.323103 -5.9118481 0.26574266 0.0055049825 -0.031133741 -0.14167762 0.14516254
17.461685 -5.8988633 0.26673409 0.0027215388 -0.028787136 -0.13877149 0.141752
17.624268 -5.8928766 0.26672691 -0.00055331737 -0.028719485 -0.13319972 0.13626181
17.791851 -5.8878899 0.26771998 -0.044810645 -0.0079701245 -0.17331541 0.17919193
