# .PCD v0.7 - Point Cloud Data file format
VERSION 0.7
FIELDS x y z normal_x normal_y normal_z curvature
SIZE 4 4 4 4 4 4 4
TYPE F F F F F F F
COUNT 1 1 1 1 1 1 1
WIDTH 63
HEIGHT 1
VIEWPOINT 0 0 0 1 0 0 0
POINTS 63
DATA ascii
-6.3068037 -9.5745773 0.38767031 -0.020047721 -0.063561738 0.081252217 0.1050901
-6.2662191 -9.5785551 0.38668332 -0.048591685 -0.081848145 0.10300288 0.1402493
-6.2536073 -9.6235523 0.38769189 -0.014964588 -0.11517715 0.13070536 0.1748531
-6.2020426 -9.6125231 0.38670656 0.00058445334 -0.094658375 0.10197207 0.13913609
-6.147481 -9.5964918 0.38672158 -0.0215909 -0.098889977 0.10278851 0.14425974
-6.1019096 -9.5934677 0.38573509 -0.0044877129 -0.090362996 0.095989674 0.13190764
-6.071125 -9.5784502 0.38574284 -0.013584139 -0.077764034 0.082942694 0.11450443
-6.0245557 -9.5734253 0.38475639 0.030282274 -0.097886115 0.1119028 0.15172654
-5.9759855 -9.5643988 0.38477001 0.16338615 -0.12317446 0.17677487 0.27040035
-5.9364095 -9.5693789 0.38378233 0.15978982 -0.1124419 0.17998438 0.26565078
-5.8918333 -9.5653543 0.38379514 0.086770847 -0.10780722 0.20108224 0.24410172
-5.8482599 -9.5633316 0.38380778 0.04103215 -0.061158001 0.14690568 0.16433264
-5.778904 -9.5532942 0.38282707 -0.0098953545 -0.031244069 0.10448416 0.10950366
-6.3497005 -9.6306152 0.3286629 0.0062845722 -0.052150607 0.091868713 0.10582553
-6.3061242 -9.6315908 0.3276765 0.017047696 -0.06885764 0.10066479 0.12314788
-6.2655392 -9.6355696 0.32768944 -0.014026105 -0.090949744 0.12735943 0.15712738
-6.2189665 -9.6315432 0.32770333 -0.030904533 -0.10249946 0.13482216 0.17215762
-6.1813846 -9.6405249 0.32771575 -0.068164349 -0.09223789 0.11767104 0.16431884
-6.1496062 -9.6255064 0.3267239 -0.01730749 -0.097528577 0.12326191 0.15812929
-6.1070228 -9.6254835 0.32673684 0.020509608 -0.067899376 0.093133703 0.11706774
-6.0674529 -9.6324625 0.3267495 0.0026115887 -0.06439659 0.088206679 0.10924358
-5.9822888 -9.6314173 0.32577491 0.00084724277 -0.079949558 0.12796274 0.15088774
-5.9377213 -9.6293936 0.32578796 0.01607351 -0.051119983 0.11006683 0.12241862
-5.9119382 -9.6223803 0.32579491 0.047758713 -0.036877036 0.11375891 0.12877072
-5.9731088 -9.4204054 0.24475634 0.039658207 -0.006621927 0.091627628 0.10006121
-6.303782 -9.7496233 0.19068958 0.14510295 -0.04429999 -0.011381865 0.15214106
-6.2941737 -9.8016224 0.19069798 0.24965164 -0.096141219 -0.077070892 0.27840438
-6.1388903 -9.6655264 0.19073127 0.044500858 0.041678876 -0.17014727 0.18074165
-6.0893297 -9.6574984 0.19174545 -0.035595357 0.037582338 -0.18820536 0.19519407
-6.2395582 -9.9536076 0.19073056 0.027675167 0.020596385 -0.10900449 0.11433331
-5.9112649 -9.51439 0.19178423 0.072990686 0.011941731 -0.086279482 0.11364152
-6.1048341 -9.9495354 0.19077076 -0.046906151 0.0084887743 -0.095434621 0.10667714
-5.8596501 -9.6643782 0.1918145 -0.092963889 -0.028511524 -0.14336313 0.17322868
-5.8094606 -9.7183571 0.19183454 -0.099297926 -0.052184165 -0.10190044 0.15154856
-5.8517947 -9.854393 0.1908358 0.65342605 -0.73032868 -0.12832236 0.98833811
-6.3450532 -9.8706694 0.11468959 0.10123156 -0.027962238 -0.043060794 0.11350748
-6.2834921 -9.8446331 0.11570577 0.21455261 -0.072501421 -0.078457847 0.23967668
-6.3038468 -9.9416533 0.11470971 0.10465473 -0.059802622 0.0058872402 0.12067985
-6.2940474 -9.9606495 0.1147147 0.089674503 -0.060733378 0.047584414 0.11829766
-6.0488205 -9.8545084 0.11677775 -0.099281132 -0.022788733 -0.05666016 0.1165609
-5.8143992 -9.7213717 0.11783341 -0.11666481 -0.058249682 -0.051772512 0.14030002
-5.8367562 -9.8253937 0.11783729 -0.1003783 -0.060169369 -0.11280803 0.16254786
-6.4424047 -9.9237404 0.039665058 -0.085233517 -0.10609779 0.20161116 0.24324587
-6.2247653 -9.7986088 0.043718919 0.18127137 -0.11771059 0.10508148 0.2403273
-6.3038683 -9.9506655 0.040710639 -0.11256288 -0.13613403 0.17299719 0.24724665
-6.1743779 -9.8205833 0.043736514 -0.0086692404 -0.11422554 0.16110158 0.19767737
-6.089848 -9.7585316 0.044755634 -0.12002061 -0.032132417 0.017641068 0.12549362
-6.1361766 -9.8965702 0.042755898 -0.014527388 -0.11690086 0.14890511 0.18986729
-6.0766215 -9.8725357 0.043771289 0.012291953 -0.081683934 0.1326448 0.15626261
-6.0484071 -9.96453 0.04278912 0.14310777 -0.12386978 0.18613909 0.26546434
-6.0126357 -9.9425077 0.043797482 0.13358185 -0.10682812 0.17361404 0.24371745
-5.8625484 -9.8394203 0.045831174 -0.084135443 -0.062621474 0.01263044 0.10563972
-5.9420686 -9.7224636 -0.034203961 -0.021425575 -0.04638952 0.10023905 0.11251183
-5.9094834 -9.7384472 -0.034192733 -0.036472984 -0.056810141 0.10894005 0.12816241
-5.8740845 -9.7824335 -0.034177918 -0.032188952 -0.065757871 0.12053879 0.1410313
-6.3160887 -9.6706696 -0.098322503 -0.017912883 -0.053605318 0.10897036 0.12275561
-6.2277422 -9.6366177 -0.096298829 0.046662588 -0.057081431 0.10817675 0.13091178
-6.2011471 -9.6616058 -0.0962881 0.010767742 -0.078915089 0.13823903 0.15954173
-6.0724235 -9.6645365 -0.094248749 0.026544049 -0.062613904 0.1244005 0.14177649
-6.007865 -9.6304989 -0.092232838 0.026718697 -0.036723882 0.092662632 0.10319349
-5.9594841 -9.6544752 -0.092215993 0.010952339 -0.051486492 0.1174019 0.12866242
-5.9009252 -9.6294413 -0.091201164 -0.012695633 -0.038635641 0.10287008 0.11061712
-5.8367524 -9.6614113 -0.091179095 -0.0087777749 -0.040089309 0.10826799 0.11578497
