# .PCD v0.7 - Point Cloud Data file format
VERSION 0.7
FIELDS x y z normal_x normal_y normal_z curvature
SIZE 4 4 4 4 4 4 4
TYPE F F F F F F F
COUNT 1 1 1 1 1 1 1
WIDTH 59
HEIGHT 1
VIEWPOINT 0 0 0 1 0 0 0
POINTS 59
DATA ascii
22.793173 7.4514132 1.0193304 -0.003394872 0.10838363 -0.055483162 0.12180688
22.691772 7.4973879 1.0173208 -0.003394872 0.10838363 -0.055483162 0.12180688
22.593369 7.5443621 1.014311 0.018719405 0.16393438 -0.270962 0.31724644
22.576967 7.6183286 1.0142971 0.018719405 0.16393438 -0.270962 0.31724644
24.099232 8.5150032 1.0731518 0.022970721 0.070741147 -0.086600423 0.11415602
23.973831 8.5559797 1.0691434 -0.04153274 -0.051712632 0.078926623 0.10309499
22.9554 8.273056 1.0341833 -0.10495955 -0.31196225 0.040785193 0.33166307
22.817001 8.3040352 1.0301763 -0.22507888 0.68454427 -0.53877312 0.89974314
22.799599 8.3800011 1.0301627 -0.22507888 0.68454427 -0.53877312 0.89974314
22.825405 8.4299803 1.0311543 -0.22507888 0.68454427 -0.53877312 0.89974314
22.789148 7.4534159 0.86732996 -0.031267434 0.10585716 -0.037341595 0.11652376
22.635347 7.5613604 0.86330825 -0.003394872 0.10838363 -0.055483162 0.12180688
24.922644 8.4970522 0.93116242 0.094977573 0.055776179 -0.42515147 0.43918732
24.693237 8.5060377 0.92515874 -0.001157348 -0.10156459 0.27785122 0.29583442
22.955776 8.1940937 0.87819719 -0.016355515 0.1019749 0.0058859885 0.10344578
22.874372 8.2470675 0.87618697 -0.080342203 -0.29106271 -0.059129983 0.30768284
22.727972 8.2750483 0.87218052 -0.2387957 0.76363695 -0.46374446 0.92478305
23.68362 8.7059059 0.90111464 -0.29895365 -0.050024003 0.064708546 0.30994013
22.92963 7.6033578 0.75730377 -0.079082936 0.21855491 0.017401665 0.23307332
22.926231 7.6823225 0.75828922 0.068366408 -0.21441431 -0.19874217 0.30024308
22.987833 7.7842803 0.76027125 0.057751745 -0.16183144 -0.17716208 0.2468017
23.172857 8.4629898 0.76915205 0.0038824677 -0.10789081 -0.048713595 0.11844203
23.952488 8.8338661 0.7890951 -0.17788714 0.0098606348 0.0028137118 0.17818245
23.975294 8.8848448 0.79008657 -0.28693253 0.012285441 -0.13985617 0.31943852
23.096512 7.6813354 0.57729125 0.0044498742 -0.096171401 -0.068129674 0.11794233
23.087112 7.7593002 0.57727683 -0.011904001 -0.133176 -0.056780532 0.14526382
23.948172 8.6819363 0.59412128 0.30706716 -0.23811848 -0.32456169 0.50629133
23.782173 8.8348627 0.59209335 0.10353076 0.056123585 -0.10395589 0.15708375
23.316851 7.8902559 0.45425546 0.016917944 -0.087958224 -0.073274463 0.11572387
23.395876 8.5379763 0.45714107 -0.022255868 0.015628248 0.12288649 0.12585966
23.841496 8.7858896 0.46210232 0.75343108 -0.25897649 -0.48644316 0.93346357
23.807098 8.8588572 0.46208948 0.80389065 -0.26380315 -0.50555509 0.98560548
23.716896 8.8678484 0.46208712 -0.036158502 -0.13384622 0.054795578 0.14907986
23.225592 8.3230658 0.28317711 0.020641267 -0.12125776 -0.026889533 0.12590693
23.633026 8.8058767 0.28409702 0.028189123 -0.09783335 0.077718034 0.12808624
23.569708 8.4230413 0.16616288 0.018329084 -0.10308073 -0.023293167 0.10725747
23.484306 8.4760141 0.16615276 -0.0076067448 -0.2188108 -0.1037239 0.24226983
23.453909 8.5489826 0.16613974 -0.017478913 0.12886797 0.034934163 0.13465832
23.448509 8.6309462 0.16612545 -0.059511781 -0.10684659 -0.097550437 0.15644147
23.485119 8.7279062 0.16610904 0.0067639053 0.1260834 -0.042763427 0.13330974
23.638924 8.8278704 0.16509327 -0.78591609 0.059834294 0.60641062 0.99447376
23.674532 8.9258308 0.16507687 -0.75031185 0.20556429 0.6116209 0.98959821
23.661736 9.0927582 0.16504848 0.77710092 -0.31523323 -0.53011334 0.99210787
23.661343 9.177722 0.1650342 0.78704095 -0.25408611 -0.53694028 0.98605174
23.782043 8.4270535 0.0051642209 0.0072326213 -0.030034035 0.2176467 0.2198282
23.68664 8.4780283 0.0051543587 0.082465217 -0.033925176 0.082890816 0.12174693
23.586239 8.5260019 0.0061450088 -0.11124404 0.10376537 -0.14332455 0.20900817
23.50684 8.5809746 0.0061346735 -0.081864268 0.12499845 -0.15274692 0.2136773
23.439442 8.639946 0.0071238009 -0.060849845 0.16014981 -0.1402044 0.22137737
23.342041 8.6879215 0.0071145892 -0.033615798 0.22560847 -0.017849836 0.22879647
23.294836 8.7129078 0.0081098387 -0.0010037422 0.16517532 0.012820292 0.16567515
23.501659 9.0437765 0.0050553372 -0.84720922 0.40800145 0.32433346 0.99469638
23.532873 9.2256994 0.0040250877 -0.7744202 0.5471251 0.29132286 0.99193829
23.383286 8.6499434 -0.14687845 -0.064272106 0.079297617 0.026598684 0.10548225
23.337292 8.8428583 -0.14691204 -0.0041823983 0.013257436 0.10789141 0.1087833
23.366894 8.938818 -0.1479281 -0.014519155 -0.034794293 0.19882047 0.20236361
23.452503 9.0557728 -0.14894712 -0.055908889 -0.11654979 0.087677911 0.15619563
23.446106 9.1387367 -0.14996111 -0.043935627 -0.076890498 0.062859885 0.10859951
23.478235 8.9068422 -0.32392165 0.00101915 -0.10090675 -0.016964674 0.10232796
