# .PCD v0.7 - Point Cloud Data file format
VERSION 0.7
FIELDS x y z normal_x normal_y normal_z curvature
SIZE 4 4 4 4 4 4 4
TYPE F F F F F F F
COUNT 1 1 1 1 1 1 1
WIDTH 86
HEIGHT 1
VIEWPOINT 0 0 0 1 0 0 0
POINTS 86
DATA ascii
15.704601 12.882747 0.8955307 -0.068271339 0.020189062 0.14177826 0.15864946
15.698217 12.960719 0.89752406 -0.70879173 0.1760692 -0.020785533 0.73062861
15.665827 13.017697 0.89751971 -0.69721568 0.16621974 -0.040405788 0.71789366
15.8039 14.269289 0.92942238 0.014526129 -0.10379776 0.041004293 0.11254482
15.766517 14.325269 0.9294194 0.023156852 -0.094998904 0.088235639 0.13170634
15.814882 15.021054 0.94637448 -0.020617694 0.080249727 -0.12437386 0.14944552
15.902128 11.883125 0.75362289 0.0060095489 0.023973167 0.098500311 0.10155363
15.842549 13.008718 0.77151817 -0.013108701 -0.016936779 0.1043691 0.1065439
15.620121 12.910738 0.76452935 -0.028526723 0.011106759 0.10079775 0.10534382
15.583733 12.963717 0.76552534 -0.72670197 0.182154 0.053754341 0.75110948
15.533484 13.642486 0.77647245 -0.076140136 -0.062052488 0.12237085 0.15691544
15.769825 14.250301 0.79242444 0.046297163 -0.17931752 0.11001635 0.21541077
15.477304 14.575183 0.79241049 0.03288269 -0.10150201 0.061614633 0.12320833
15.736204 16.440645 0.83330601 0.0080778301 0.016152199 -0.19403531 0.19487391
15.722457 16.63559 0.83729863 0.012615651 -0.0038136239 -0.13620019 0.13683635
15.910589 12.622863 0.66955143 0.016266495 -0.10126291 -0.033590328 0.10792167
15.766683 13.130677 0.67450893 -0.72870719 0.19871935 0.016005643 0.75548643
15.859508 14.169337 0.69142807 0.0034385622 0.015025523 0.10114765 0.10231539
15.808119 14.213321 0.6914261 0.020371586 -0.050722338 0.16031514 0.16937739
15.819743 14.314289 0.69341892 0.041890681 -0.12061418 0.0011460483 0.12768681
15.457205 14.576187 0.69141096 0.061408728 -0.10486425 0.18806541 0.22391102
15.518844 14.726144 0.69440019 -0.021727204 -0.12815459 0.088551179 0.15727995
15.743608 16.898525 0.73328769 0.012919903 -0.061077371 -0.1640873 0.17556198
15.751427 16.959509 0.73428512 0.014084131 -0.10141304 -0.16026226 0.19017613
15.811908 14.02539 0.52743918 -0.015992314 -0.11250886 0.06990315 0.13341832
15.83872 14.094369 0.52843374 -0.0086928904 -0.11501893 0.072227769 0.1360947
15.406786 14.380255 0.52642447 0.057739139 -0.15179117 0.17757881 0.24064206
15.327391 14.397245 0.52642536 0.0195553 -0.089469463 0.058383916 0.10860882
15.323012 14.484218 0.52742004 0.0073878169 -0.15775153 -0.1538626 0.22048542
15.529308 14.864112 0.53339171 -0.0091197789 0.10968258 -0.097964615 0.14734486
15.369078 14.759135 0.53040236 -0.72486019 0.11432895 0.63312376 0.96919507
15.645796 13.663505 0.41546887 -0.050951719 -0.096493289 0.004963465 0.10923218
15.822495 14.129363 0.41943163 -0.017248064 0.047657114 -0.090029337 0.10331495
15.612368 14.437254 0.42041576 -0.075894952 -0.084453166 0.18048444 0.21322995
15.401943 14.334274 0.4184275 -0.14432913 -0.47340283 0.1133696 0.50773394
15.467575 14.487231 0.41941616 0.13364044 -0.26042768 -0.073088184 0.3017022
15.557218 14.663181 0.42140296 0.043832809 0.16723929 0.049687296 0.17988642
15.545839 14.745155 0.42239833 -0.37791538 -0.12008226 0.13506404 0.41890579
15.457444 14.754148 0.42140019 -0.1471542 -0.031312272 0.73240507 0.74769777
15.309219 14.660169 0.41940984 0.0035048723 -0.21373984 -0.48363757 0.52877432
15.305844 14.749142 0.42040473 -0.77034694 -0.17017347 0.12000419 0.79799396
15.618814 14.331296 0.27142248 -0.08023259 -0.43180043 0.059482262 0.44320089
15.629441 14.431265 0.27141571 -0.024139881 -0.11296963 0.089545697 0.14616191
15.697263 14.540235 0.27140704 -0.005248487 -0.18868379 0.044178039 0.19385773
15.385816 14.344279 0.27042726 -0.12029624 -0.33513981 -0.059625596 0.36103338
15.378436 14.428253 0.27142212 -0.1624971 0.045092009 0.13746727 0.21756802
15.546721 14.770156 0.2723968 -0.09527564 0.10854089 0.054611266 0.15440519
15.464326 14.785147 0.27139816 -0.055373013 0.09253034 0.0019396544 0.1078508
15.34892 14.769147 0.27140233 -0.14998654 -0.02650921 0.12798622 0.19894515
15.267712 14.738152 0.27140644 -0.57078701 -0.18515575 0.13588536 0.61526036
15.235328 14.800132 0.27140382 -0.45925105 -0.19876283 -0.034692079 0.5016191
15.202944 14.862112 0.27140126 0.21303198 0.13263534 0.036192387 0.25354418
15.201571 14.954084 0.27139622 0.37100446 0.22325625 0.002304703 0.43300459
15.198191 15.046057 0.27139136 0.28975871 0.076159686 0.066702634 0.30693591
15.181811 15.125031 0.27238771 -0.40390173 -0.12717767 0.76815325 0.87713748
15.205627 15.197012 0.27238321 -0.19068749 -0.1226035 0.05252555 0.23270641
15.843466 13.913447 0.17144664 -0.054069579 -0.17373414 0.14702001 0.23392724
15.829082 13.989422 0.17144142 -0.0092084706 -0.12453334 0.070209473 0.14325753
15.568994 14.477253 0.17041425 -0.0014732182 -0.17410763 -0.022450715 0.17555532
15.809533 15.077081 0.17037134 0.009891808 0.085838385 -0.065036185 0.10814703
15.835163 15.197047 0.16936372 -0.0029473007 0.084522843 -0.0716829 0.11086585
15.834483 13.666535 0.037465226 0.0029733777 -0.065456763 -0.07997784 0.10339189
15.820629 14.321322 0.034418475 0.0024698377 -0.10408705 6.3218176e-05 0.10411637
15.794246 14.388301 0.034414597 -0.01295647 -0.13356099 0.0039196312 0.13424519
15.736289 14.564242 0.03340454 0.035303503 0.080140479 -0.067960039 0.11084855
15.797415 15.090085 0.030370943 0.0089743435 0.061635945 -0.081186093 0.10232649
15.611055 15.24603 0.030367771 0.020728976 0.083838992 -0.16233967 0.18388267
15.878744 15.603936 0.027340157 -0.051446915 0.0038415398 0.18873048 0.19565463
15.87937 15.702908 0.026335012 -0.07982114 0.0014147535 0.21374996 0.22817199
15.869998 15.791881 0.026330823 -0.073719651 -0.043441322 0.17513183 0.19491766
15.870623 15.892852 0.025325805 -0.13707396 -0.032470256 0.24779466 0.28503644
15.757504 14.287337 -0.096577786 -0.049529254 -0.1621833 0.1582168 0.23192485
15.546082 14.186357 -0.092566192 -0.41896227 0.34269309 -0.35321295 0.64631832
15.515692 14.249336 -0.093569681 -0.6409263 0.4168281 -0.38309306 0.85515642
15.706409 14.746192 -0.099606067 0.021859974 0.0015135128 -0.098852605 0.1012521
15.778292 15.09709 -0.10462891 0.00047755241 0.089951307 -0.061000191 0.10868527
15.836356 14.154392 -0.2445704 -0.090341985 -0.3051042 0.2222994 0.38815883
15.710951 14.132392 -0.24256617 -0.090341985 -0.3051042 0.2222994 0.38815883
15.826407 14.371323 -0.24758501 -0.049020708 -0.064983264 0.13535339 0.15794428
15.84203 14.477291 -0.24859242 0.0012643933 0.1329336 -0.011774868 0.13346006
15.839252 14.178391 -0.35457215 0.1869863 0.21709779 -0.040210843 0.28933066
15.790295 14.36033 -0.35658345 -0.1267077 -0.087074526 0.14271881 0.20977482
15.823918 14.483294 -0.35959235 0.0037941337 0.10735284 0.0029844195 0.10746132
15.394697 14.361309 -0.34857401 -0.20694245 0.5403899 -0.18819101 0.60849184
15.784947 15.439004 -0.37564808 -0.043570131 -0.072880268 -0.21436396 0.23056842
15.797499 14.077427 -0.47756419 0.072222561 0.050799087 -0.17151225 0.19290696
