# .PCD v0.7 - Point Cloud Data file format
VERSION 0.7
FIELDS x y z normal_x normal_y normal_z curvature
SIZE 4 4 4 4 4 4 4
TYPE F F F F F F F
COUNT 1 1 1 1 1 1 1
WIDTH 59
HEIGHT 1
VIEWPOINT 0 0 0 1 0 0 0
POINTS 59
DATA ascii
6.2663178 -9.3269987 0.59048116 -0.012802561 0.038374901 -0.098333895 0.10633012
6.2443933 -9.3040085 0.51847726 -0.068117507 0.037396014 -0.2971577 0.30715007
6.29598 -9.3200102 0.51947683 -0.0427422 0.042937994 -0.29497975 0.30113721
6.323545 -9.2980204 0.51946902 -0.011184026 0.050562054 -0.23453392 0.24018277
6.3651171 -9.2970276 0.51946527 -0.0030224808 0.050100058 -0.2540141 0.25892532
6.4067054 -9.2980328 0.52046198 0.085078612 0.046301931 -0.22467268 0.24466313
6.4294834 -9.299036 0.52046031 0.066340283 0.048196822 -0.24216431 0.25567073
5.3373747 -9.3458738 0.45556328 -0.035353992 -0.062129587 0.1715405 0.185839
5.3889651 -9.3708735 0.4565649 -0.055917114 -0.24622591 0.34439394 0.4270376
5.4165297 -9.3508825 0.45655799 -0.080564685 -0.47342139 0.40242749 0.62655121
5.4483299 -9.3738804 0.45756075 -0.077027619 -0.47475943 0.39975733 0.62540841
5.4788947 -9.3588886 0.45755473 -0.075799465 -0.4710612 0.39825758 0.6214928
5.521481 -9.3668928 0.45755309 -0.074796855 -0.46139359 0.39312994 0.61076164
5.5510454 -9.3499012 0.45754665 -0.071089171 -0.087473184 0.19624516 0.22631259
5.6036325 -9.3739023 0.459548 -0.071544342 -0.45461392 0.38338202 0.59897757
5.630198 -9.3519115 0.45854062 -0.06903287 -0.45481974 0.38080487 0.59719253
5.6727777 -9.3579159 0.45953849 -0.06645868 -0.4647316 0.37620053 0.60159707
5.6895638 -9.3529196 0.4595359 -0.067376271 -0.46372455 0.37278131 0.59878701
5.7391448 -9.3699217 0.46053582 -0.064041905 -0.47230482 0.36746478 0.60183352
5.7617145 -9.3419323 0.46052727 -0.078508377 -0.07391274 0.15760331 0.19095932
5.816288 -9.364934 0.46152824 -0.06000001 -0.46753362 0.35264698 0.58868289
5.8408642 -9.3409443 0.46152043 -0.075483799 -0.073978782 0.14974044 0.18328357
5.8884416 -9.3529472 0.46151933 -0.053996049 -0.46323246 0.33989751 0.5770877
5.9170175 -9.3349562 0.4615126 -0.038563028 -0.064389497 0.12874682 0.14902638
5.9548111 -9.3629541 0.46251619 -0.047661334 -0.4608025 0.33032057 0.56896591
5.9803715 -9.3379641 0.46250796 -0.053940404 -0.077376634 0.13963348 0.16850585
6.0329666 -9.3589649 0.4635087 -0.035203986 -0.45983797 0.32057536 0.56165725
6.0565352 -9.3319769 0.46350011 -0.034658421 -0.056916535 0.10698852 0.1260446
6.1131077 -9.3549776 0.46450096 -0.020109542 -0.45331594 0.30906156 0.54901618
6.1396809 -9.3329878 0.46449333 -0.014157513 -0.45649764 0.30530375 0.54936409
6.1684675 -9.3449888 0.46549386 -0.0078736385 -0.45487779 0.3012431 0.54564017
6.260622 -9.3589973 0.46648952 0.03921786 -0.048211157 -0.49089146 0.49480984
6.2821999 -9.3300095 0.46648052 0.013906522 -0.051556319 -0.49695787 0.49981853
6.3377762 -9.3500109 0.46748078 -0.027456399 -0.062796593 -0.51369488 0.51824677
6.3683414 -9.3320208 0.46747372 -0.0055113342 -0.048597038 -0.49741188 0.49981058
6.4139252 -9.3380251 0.46847138 -0.013868483 -0.060897201 -0.51200163 0.51579696
6.4337125 -9.3360291 0.4684692 -0.010781586 -0.061012059 -0.51148194 0.51522082
6.4732819 -9.3310356 0.46846458 -0.013007579 -0.058535099 -0.49964803 0.50323325
6.512866 -9.328042 0.46946046 0.027301921 -0.45072451 0.30129436 0.54284096
6.5990133 -9.3280544 0.47045317 0.030278495 -0.43463278 0.30159825 0.52989054
5.3163185 -9.2988892 0.37355411 -0.061816175 -0.046928406 0.15004262 0.16892691
5.3568988 -9.303894 0.37355193 -0.074928649 -0.047767967 0.14840516 0.1729745
5.3914742 -9.2978992 0.37354764 -0.073369108 -0.036479712 0.12376672 0.14843179
5.4260507 -9.2919064 0.37354338 -0.071410328 -0.035811722 0.12091003 0.14491773
5.5645728 -9.2989235 0.37553349 -0.078053698 -0.029283941 0.097468741 0.12825789
5.7396617 -9.2969494 0.37651834 -0.078903005 -0.032389969 0.091603637 0.12516397
5.7772379 -9.2939548 0.37651443 -0.082475916 -0.036738753 0.096779779 0.13235685
5.8523951 -9.2879667 0.37750667 -0.049721438 -0.032412827 0.084691525 0.10341889
5.9295363 -9.2819796 0.37749869 -0.095731884 -0.0168055 0.03875789 0.10463839
5.9533267 -9.287981 0.37749812 -0.086674362 -0.028756499 0.064284638 0.11167764
5.990911 -9.2849874 0.37849417 -0.055959463 -0.041668385 0.088897869 0.11300685
5.29041 -9.2668982 0.31754881 -0.027129937 -0.048611462 0.15169713 0.16158938
5.3329854 -9.2749023 0.31854713 -0.053845197 -0.053107798 0.15867975 0.17578115
5.3695636 -9.2729082 0.31854361 -0.061651453 -0.041013837 0.13444662 0.15348919
5.3991346 -9.2579155 0.31853762 -0.075705975 -0.034782201 0.11917122 0.14540625
5.7573323 -9.2749615 0.32051155 -0.091943108 -0.021753103 0.063109413 0.11362012
5.9264202 -9.2589903 0.32149333 -0.094237015 -0.017592072 0.040762872 0.10417153
5.9659891 -9.2569962 0.32148945 -0.086158708 -0.029162645 0.064238772 0.1113571
5.9995594 -9.2460041 0.32148388 -0.052035727 -0.038639128 0.084282085 0.10632107
