# .PCD v0.7 - Point Cloud Data file format
VERSION 0.7
FIELDS x y z normal_x normal_y normal_z curvature
SIZE 4 4 4 4 4 4 4
TYPE F F F F F F F
COUNT 1 1 1 1 1 1 1
WIDTH 51
HEIGHT 1
VIEWPOINT 0 0 0 1 0 0 0
POINTS 51
DATA ascii
-53.264198 2.450634 1.4379545 -0.41497874 0.065223642 0.32487005 0.53103864
-53.251633 2.0347185 1.4379134 -0.47165325 -0.036555719 0.3579441 0.59322602
-52.627239 1.272282 1.4224946 -0.43983907 -0.20125414 0.42379272 0.6430878
-52.48682 1.1051825 1.4194006 -0.41792893 -0.094086625 0.25575358 0.49892563
-52.423397 0.94015855 1.4173504 -0.39165595 -0.15129843 0.24715719 0.48720866
-52.391972 0.7761656 1.4163183 -0.4502078 -0.13636625 0.38959301 0.61079091
-52.328545 0.61214113 1.4152682 -0.34688306 -0.35754099 0.48528185 0.69545805
-52.631123 3.6708205 1.0286921 -0.19602385 -0.0071635656 0.042202264 0.20064321
-52.806679 2.939163 1.0307339 -0.20787434 0.080218099 0.05683139 0.22994889
-52.934242 2.7813251 1.0327938 -0.4368625 0.19295363 0.36859676 0.60327733
-53.112804 2.6245372 1.0348825 -0.42362598 0.18406658 0.31817222 0.56086808
-53.107376 2.4585707 1.034866 -0.44650868 0.1333016 0.33645189 0.57475144
-53.16095 2.2946615 1.0358832 -0.3598263 0.059138279 0.36834323 0.51831365
-53.134525 2.1276746 1.0348544 -0.48512465 0.080797352 0.47352019 0.6827119
-53.197811 2.0467558 1.0358838 -0.47676116 0.09032651 0.47408381 0.67839187
-53.268379 1.8838633 1.0369104 -0.48706242 0.084081382 0.47502789 0.68552971
-53.236954 1.7168713 1.0368787 -0.4779003 0.12697877 0.5264135 0.72223508
-52.696552 1.5343816 1.0275562 -0.054433912 -0.16502902 0.21198323 0.27410677
-52.350716 1.1971192 1.0223309 -0.35659745 -0.31749791 0.37044007 0.60431159
-52.217003 1.1130069 1.0202476 -0.36710417 0.021143816 0.16918424 0.40476641
-52.13258 0.94796187 1.0191854 -0.078128636 0.01618916 0.066501468 0.10386827
-52.28315 0.78814751 1.0212574 -0.41286233 -0.074005611 0.23980656 0.48315558
-52.257725 0.6251604 1.0202289 -0.14985374 -0.2582415 0.16994366 0.34354863
-51.893875 0.29687735 1.014993 -0.62888741 -0.148047 0.40142447 0.76063061
-52.243019 3.7234886 0.75647599 -0.003549099 -0.079062961 -0.27744961 0.28851661
-52.165165 3.391489 0.7554056 -0.42292538 0.00066131906 0.7478202 0.85912824
-52.148449 3.3084915 0.75538951 -0.4416506 -0.045026854 0.71055377 0.83783609
-52.213017 3.1495917 0.75641352 -0.38129702 0.059798043 0.80779231 0.89526063
-52.517708 2.6750021 0.75854844 -0.20202921 0.18476121 0.079611152 0.28511479
-52.692997 1.4504597 0.76054698 -0.039984584 -0.32560822 -0.068729959 0.33517653
-52.791569 1.2885948 0.76158941 0.13924718 0.086613327 -0.14498879 0.21889129
-51.874878 1.1857142 0.75105911 -0.2480839 -0.0086998828 0.068789154 0.25759128
-51.614456 1.0184958 0.7488966 -0.41508216 -0.1447041 0.72884572 0.85114545
-51.728603 0.69768292 0.74993384 0.044491261 -0.048260868 -0.1214155 0.13802284
-52.015167 0.54000247 0.75308329 -0.22958121 0.018375181 0.15035656 0.27504957
-52.198547 3.915483 0.3954657 0.0082324743 0.067155674 -0.076415248 0.10206345
-52.225117 3.7535467 0.39546812 0.007566601 -0.022837117 0.10468651 0.10741533
-52.296677 3.595654 0.39549634 0.85476673 -0.33091384 -0.37109783 0.98885983
-52.39624 3.4377887 0.39554042 0.34780663 -0.17402332 0.18319786 0.42990118
-52.276958 1.7960532 0.39433926 -0.10846886 0.038872853 0.10686243 0.15715015
-52.424526 1.6382356 0.39540997 0.071676821 0.0079490989 -0.11598378 0.13657597
-52.463673 1.3123503 0.39540482 -0.33002883 0.08042834 0.13539866 0.36567819
-51.811695 0.72984111 0.39298388 0.0070023835 0.59907186 -0.37622276 0.70744592
-51.758266 0.56782585 0.39293936 -0.0025040209 -0.036685735 -0.10487981 0.11113904
-52.263992 2.1110234 0.15035799 0.18163887 -0.5083003 -0.45077246 0.70324796
-52.068283 1.4539833 0.15019183 0.080571413 -0.049235165 -0.10930902 0.14444485
-52.110859 1.292063 0.15020233 0.10613823 0.075887904 -0.11698127 0.17523959
-51.946369 2.0478003 -0.17682786 -0.057151198 0.094862327 -0.030714437 0.11492822
-51.806656 1.9606824 -0.17591453 -0.37379935 -0.23088443 0.25791484 0.50946409
-51.872227 1.8017843 -0.17589051 -0.4156242 -0.017987324 0.21871921 0.47000542
-51.882797 1.6398324 -0.17589808 0.0099437833 -0.12188503 -0.034254074 0.12699677
